0,0,3.165,3.204,3.253,3.294,3.335,3.367,3.4,3.422,3.444,3.466,3.501,3.536,3.572,3.584,3.621,3.633,3.671,3.697,3.71,3.71,3.71,3.71,3.71,3.71,3.697,3.684,3.684,3.684,3.684,3.697,3.71,3.71,3.723,3.749,3.762,3.762,3.776,3.776,3.776,3.762,3.762,3.762,3.749,3.749,3.736,3.736,3.723,3.71,3.697,3.697,3.697,3.684,3.684,3.671,3.671,3.671,3.671,3.658,3.658,3.658,3.658,3.658,3.658,3.658,3.658,3.658,3.658,3.658,3.658,3.658,3.658,3.658,3.658,3.658,3.658,3.671,3.671,3.671,3.671,3.671,3.671,3.671,3.671,3.671,3.671,3.671,3.671,3.658,3.658,3.658,3.658,3.658,3.658,3.658,3.646,3.646,3.646,3.633,3.621,3.621,3.608,3.608,3.608,3.596,3.596,3.596,3.596,3.596,3.608,3.608,3.608,3.621,3.621,3.633,3.646,3.646,3.646,3.658,3.658,3.658,3.658,3.671,3.684,3.697,3.697,3.71,3.71,3.723,3.723,3.723,3.723,3.723,3.723,3.723,3.71,3.71,3.71,3.71,3.71,3.71,3.697,3.697,3.697,3.684,3.684,3.684,3.671,3.658,3.658,3.646,3.646,3.633,3.621,3.621,3.608,3.608,3.596,3.584,3.584,3.584,3.572,3.572,3.584,3.584,3.584,3.584,3.584,3.584,3.584,3.596,3.596,3.621,3.633,3.658,3.684,3.71,3.736,3.776,3.803,3.845,3.901,3.96,4.02,4.082,4.146,4.195,4.263,4.315,4.351,4.369,4.387,4.405,4.405,4.424,4.424,4.424,4.424,4.424,4.405,4.405,4.424,4.424,4.424,4.424,4.424,4.424,4.424,4.424,4.424,4.424,4.405,4.405,4.387,4.387,4.387,4.369,4.369,4.351,4.351,4.333,4.333,4.315,4.298,4.28,4.28,4.263,4.246,4.229,4.229,4.212,4.195,4.195,4.195,4.179,4.179,4.179,4.179,4.195,4.195,4.212,4.229,4.246,4.263,4.28,4.28,4.298,4.315,4.315,4.333,4.351,4.351,4.351,4.369,4.369,4.387,4.387,4.405,4.405,4.424,4.424,4.424,4.442,4.442,4.442,4.461,4.461,4.461,4.48,4.48,4.48,4.48,4.48,4.461,4.461,4.461,4.461,4.461,4.461,4.442,4.442,4.442,4.424,4.424,4.405,4.387,4.387,4.369,4.351,4.333,4.298,4.28,4.28,4.263,4.263,4.263,4.263,4.28,4.298,4.315,4.333,4.369,4.387,4.387,4.405,4.424,4.442,4.461,4.461,4.461,4.461,4.442,4.442,4.442,4.442,4.424,4.424,4.405,4.405,4.405,4.387,4.387,4.387,4.369,4.369,4.369,4.369,4.369,4.369,4.369,4.387,4.387,4.387,4.405,4.405,4.405,4.424,4.442,4.461,4.48,4.499,4.518,4.518,4.538,4.538,4.557,4.577,4.577,4.597,4.597,4.597,4.597,4.617,4.617,4.617,4.617,4.617,4.617,4.637,4.658,4.658,4.658,4.658,4.658,4.658,4.658,4.658,4.637,4.637,4.617,4.597,4.597,4.577,4.538,4.518,4.48,4.461,4.424,4.405,4.369,4.333,4.315,4.28,4.246,4.212,4.179,4.13,4.082,4.051,4.02,3.99,3.975,3.96,3.945,3.945,3.93,3.93,3.916,3.901,3.887,3.859,3.831,3.789,3.749,3.723,3.684,3.633,3.596,3.56,3.536,3.501,3.489,3.466,3.444,3.422,3.389,3.356,3.325,3.294,3.263,3.233,3.204,3.184,3.175,3.165,3.147,3.137,3.128,3.119,3.11,3.091,3.065,3.029,3.012,2.978,2.953,2.929,2.905,2.881,2.865,2.865,2.865,2.865,2.865,2.865,2.865,2.865,2.865,2.865,2.865,2.865,2.865,2.865,2.857,2.857,2.85,2.842,2.834,2.827,2.819,2.812,2.804,2.797,2.79,2.782,2.782,2.782,2.782,2.782,2.782,2.782,2.782,2.79,2.782,2.782,2.782,2.775,2.775,2.775,2.775,2.768,2.768,2.775,2.775,2.782,2.79,2.79,2.797,2.812,2.819,2.827,2.827,2.834,2.834,2.842,2.842,2.842,2.842,2.834,2.827,2.827,2.819,2.819,2.812,2.812,2.804,2.804,2.797,2.797,2.797,2.797,2.797,2.797,2.804,2.804,2.804,2.804,2.804,2.804,2.804,2.804,2.797,2.797,2.797,2.797,2.797,2.797,2.797,2.797
3.1,3.128,3.165,3.194,3.243,3.283,3.325,3.346,3.378,3.4,3.422,3.455,3.489,3.524,3.548,3.584,3.596,3.621,3.646,3.671,3.684,3.697,3.697,3.684,3.684,3.684,3.684,3.684,3.671,3.671,3.684,3.684,3.697,3.71,3.723,3.749,3.762,3.762,3.762,3.762,3.762,3.762,3.762,3.749,3.749,3.749,3.736,3.736,3.723,3.71,3.697,3.697,3.697,3.684,3.671,3.671,3.671,3.658,3.658,3.658,3.646,3.646,3.646,3.658,3.658,3.658,3.658,3.658,3.658,3.658,3.658,3.658,3.658,3.658,3.658,3.658,3.671,3.671,3.671,3.671,3.671,3.671,3.671,3.671,3.671,3.671,3.671,3.671,3.658,3.658,3.658,3.658,3.658,3.658,3.646,3.646,3.646,3.633,3.621,3.621,3.621,3.608,3.608,3.596,3.596,3.596,3.596,3.596,3.596,3.596,3.596,3.608,3.608,3.621,3.621,3.633,3.633,3.633,3.646,3.646,3.658,3.658,3.658,3.671,3.671,3.684,3.697,3.697,3.71,3.723,3.723,3.723,3.723,3.723,3.723,3.723,3.71,3.71,3.71,3.71,3.697,3.697,3.697,3.697,3.684,3.684,3.684,3.671,3.671,3.658,3.658,3.646,3.646,3.633,3.633,3.621,3.608,3.596,3.596,3.584,3.584,3.584,3.584,3.584,3.584,3.584,3.584,3.584,3.584,3.584,3.584,3.596,3.596,3.621,3.633,3.658,3.684,3.71,3.749,3.776,3.817,3.873,3.93,3.99,4.051,4.098,4.162,4.229,4.28,4.315,4.369,4.387,4.387,4.405,4.424,4.424,4.424,4.424,4.424,4.424,4.424,4.424,4.424,4.424,4.424,4.424,4.424,4.424,4.424,4.424,4.424,4.424,4.405,4.405,4.405,4.387,4.387,4.369,4.369,4.351,4.351,4.333,4.315,4.315,4.298,4.28,4.263,4.263,4.246,4.229,4.229,4.212,4.195,4.195,4.179,4.179,4.179,4.179,4.179,4.179,4.195,4.212,4.229,4.246,4.263,4.28,4.28,4.298,4.315,4.315,4.333,4.351,4.351,4.369,4.369,4.369,4.387,4.405,4.405,4.424,4.424,4.442,4.442,4.461,4.461,4.461,4.461,4.48,4.48,4.48,4.48,4.48,4.48,4.48,4.48,4.48,4.48,4.48,4.461,4.461,4.461,4.442,4.442,4.424,4.424,4.405,4.387,4.387,4.369,4.351,4.333,4.315,4.298,4.28,4.263,4.263,4.263,4.263,4.28,4.298,4.315,4.333,4.351,4.387,4.405,4.424,4.442,4.442,4.461,4.461,4.461,4.461,4.461,4.461,4.442,4.442,4.424,4.424,4.405,4.405,4.405,4.405,4.387,4.387,4.387,4.369,4.369,4.387,4.387,4.387,4.387,4.387,4.387,4.405,4.405,4.424,4.424,4.442,4.442,4.461,4.48,4.499,4.518,4.538,4.538,4.557,4.557,4.557,4.577,4.577,4.597,4.597,4.597,4.597,4.597,4.617,4.617,4.617,4.617,4.637,4.637,4.658,4.658,4.658,4.658,4.658,4.658,4.658,4.637,4.637,4.617,4.597,4.597,4.577,4.538,4.518,4.48,4.461,4.424,4.387,4.369,4.333,4.298,4.263,4.229,4.195,4.162,4.114,4.082,4.051,4.02,3.99,3.975,3.96,3.945,3.93,3.93,3.916,3.916,3.901,3.887,3.859,3.817,3.789,3.749,3.71,3.671,3.633,3.596,3.56,3.524,3.501,3.489,3.466,3.444,3.422,3.389,3.356,3.325,3.294,3.263,3.233,3.214,3.184,3.175,3.165,3.147,3.137,3.128,3.119,3.1,3.082,3.065,3.029,3.004,2.978,2.953,2.921,2.897,2.873,2.865,2.857,2.865,2.857,2.857,2.857,2.857,2.865,2.865,2.865,2.865,2.865,2.857,2.857,2.857,2.85,2.85,2.842,2.834,2.827,2.819,2.812,2.804,2.797,2.79,2.782,2.782,2.782,2.782,2.782,2.782,2.782,2.79,2.79,2.79,2.782,2.782,2.782,2.775,2.775,2.775,2.775,2.775,2.775,2.775,2.782,2.79,2.797,2.797,2.804,2.812,2.819,2.827,2.827,2.834,2.834,2.834,2.834,2.834,2.827,2.827,2.819,2.812,2.812,2.804,2.804,2.797,2.797,2.797,2.797,2.797,2.797,2.797,2.797,2.797,2.804,2.804,2.804,2.804,2.804,2.804,2.804,2.804,2.804,2.797,2.797,2.797,2.797,2.797,2.797
3.11,3.128,3.156,3.194,3.233,3.283,3.314,3.346,3.378,3.4,3.422,3.455,3.489,3.512,3.536,3.572,3.584,3.608,3.633,3.646,3.671,3.671,3.671,3.671,3.684,3.671,3.671,3.671,3.671,3.684,3.684,3.697,3.71,3.71,3.736,3.749,3.762,3.762,3.762,3.762,3.762,3.762,3.762,3.749,3.749,3.749,3.736,3.736,3.723,3.71,3.697,3.697,3.697,3.684,3.671,3.671,3.671,3.658,3.658,3.658,3.658,3.658,3.658,3.658,3.658,3.658,3.658,3.658,3.658,3.658,3.658,3.658,3.658,3.658,3.671,3.671,3.671,3.671,3.671,3.671,3.671,3.671,3.671,3.671,3.671,3.671,3.671,3.671,3.671,3.658,3.658,3.658,3.658,3.658,3.658,3.658,3.646,3.646,3.633,3.633,3.621,3.608,3.608,3.608,3.608,3.608,3.608,3.608,3.608,3.608,3.608,3.608,3.621,3.621,3.633,3.646,3.646,3.646,3.646,3.658,3.658,3.658,3.658,3.671,3.671,3.684,3.697,3.697,3.71,3.723,3.723,3.723,3.723,3.723,3.723,3.71,3.71,3.71,3.71,3.697,3.697,3.697,3.697,3.697,3.684,3.684,3.684,3.671,3.671,3.658,3.658,3.658,3.646,3.646,3.646,3.633,3.633,3.621,3.621,3.608,3.608,3.596,3.596,3.596,3.596,3.584,3.584,3.584,3.596,3.596,3.596,3.608,3.621,3.633,3.646,3.671,3.697,3.736,3.762,3.803,3.845,3.901,3.96,4.02,4.066,4.13,4.195,4.246,4.298,4.333,4.387,4.387,4.405,4.424,4.424,4.424,4.424,4.442,4.442,4.442,4.442,4.442,4.442,4.442,4.442,4.442,4.442,4.442,4.442,4.442,4.442,4.424,4.424,4.424,4.405,4.405,4.387,4.369,4.369,4.351,4.351,4.333,4.315,4.315,4.298,4.28,4.28,4.263,4.246,4.229,4.229,4.229,4.212,4.195,4.195,4.179,4.179,4.179,4.195,4.195,4.195,4.212,4.229,4.246,4.263,4.28,4.28,4.298,4.315,4.333,4.333,4.351,4.369,4.369,4.387,4.387,4.405,4.405,4.424,4.442,4.442,4.461,4.461,4.48,4.48,4.48,4.48,4.499,4.499,4.499,4.499,4.499,4.499,4.499,4.499,4.499,4.499,4.48,4.48,4.48,4.48,4.461,4.461,4.442,4.424,4.424,4.405,4.387,4.369,4.351,4.333,4.315,4.298,4.28,4.28,4.28,4.28,4.28,4.298,4.298,4.333,4.351,4.369,4.387,4.405,4.424,4.442,4.461,4.48,4.48,4.48,4.48,4.48,4.461,4.461,4.442,4.442,4.424,4.424,4.424,4.405,4.405,4.405,4.387,4.387,4.387,4.387,4.387,4.387,4.387,4.405,4.405,4.405,4.405,4.424,4.424,4.442,4.461,4.461,4.48,4.499,4.518,4.538,4.538,4.557,4.577,4.577,4.577,4.577,4.597,4.597,4.597,4.617,4.617,4.617,4.617,4.617,4.617,4.637,4.658,4.658,4.658,4.678,4.678,4.678,4.678,4.658,4.658,4.637,4.637,4.637,4.617,4.597,4.577,4.538,4.518,4.48,4.461,4.424,4.405,4.369,4.333,4.298,4.263,4.229,4.195,4.146,4.114,4.066,4.035,4.005,3.99,3.975,3.96,3.945,3.93,3.93,3.916,3.901,3.887,3.873,3.845,3.817,3.776,3.749,3.71,3.671,3.633,3.596,3.56,3.524,3.501,3.489,3.466,3.444,3.422,3.389,3.367,3.335,3.304,3.273,3.243,3.214,3.194,3.175,3.165,3.147,3.137,3.128,3.119,3.1,3.082,3.056,3.029,3.004,2.978,2.953,2.929,2.905,2.873,2.865,2.865,2.865,2.865,2.857,2.857,2.865,2.865,2.865,2.865,2.865,2.865,2.865,2.857,2.857,2.85,2.85,2.842,2.834,2.827,2.827,2.812,2.804,2.797,2.79,2.79,2.79,2.79,2.79,2.79,2.79,2.79,2.79,2.797,2.79,2.79,2.782,2.782,2.782,2.782,2.782,2.782,2.782,2.782,2.782,2.79,2.79,2.797,2.804,2.804,2.812,2.819,2.827,2.834,2.834,2.842,2.842,2.842,2.834,2.834,2.827,2.819,2.812,2.812,2.804,2.804,2.797,2.797,2.797,2.797,2.797,2.797,2.797,2.797,2.797,2.804,2.804,2.804,2.812,2.812,2.812,2.812,2.804,2.804,2.804,2.804,2.804,2.804,2.804,2.804
3.11,3.137,3.165,3.194,3.233,3.273,3.304,3.335,3.367,3.4,3.422,3.444,3.478,3.501,3.536,3.548,3.572,3.596,3.621,3.633,3.646,3.658,3.658,3.658,3.658,3.658,3.658,3.671,3.671,3.671,3.684,3.697,3.71,3.723,3.736,3.749,3.749,3.762,3.762,3.762,3.762,3.762,3.762,3.749,3.749,3.749,3.736,3.736,3.723,3.71,3.697,3.697,3.684,3.671,3.671,3.671,3.658,3.658,3.658,3.658,3.658,3.658,3.658,3.658,3.658,3.658,3.658,3.658,3.658,3.658,3.658,3.658,3.658,3.658,3.671,3.671,3.671,3.671,3.671,3.671,3.671,3.671,3.671,3.671,3.671,3.671,3.671,3.671,3.658,3.658,3.658,3.658,3.658,3.658,3.658,3.646,3.646,3.646,3.633,3.621,3.621,3.621,3.608,3.608,3.608,3.608,3.608,3.608,3.608,3.608,3.608,3.621,3.621,3.621,3.633,3.646,3.646,3.646,3.658,3.658,3.658,3.658,3.658,3.671,3.671,3.684,3.697,3.697,3.71,3.71,3.71,3.71,3.71,3.71,3.71,3.71,3.71,3.71,3.697,3.697,3.697,3.697,3.697,3.684,3.684,3.684,3.684,3.684,3.671,3.671,3.658,3.658,3.658,3.646,3.646,3.646,3.633,3.633,3.621,3.621,3.608,3.608,3.608,3.596,3.596,3.596,3.596,3.596,3.596,3.596,3.608,3.608,3.621,3.646,3.658,3.684,3.723,3.749,3.789,3.831,3.873,3.93,3.99,4.051,4.114,4.162,4.212,4.263,4.315,4.351,4.387,4.405,4.424,4.442,4.442,4.442,4.442,4.461,4.461,4.461,4.461,4.461,4.461,4.461,4.461,4.461,4.461,4.461,4.461,4.461,4.442,4.442,4.442,4.424,4.405,4.405,4.387,4.387,4.369,4.351,4.351,4.333,4.315,4.315,4.298,4.28,4.263,4.263,4.246,4.229,4.229,4.229,4.212,4.195,4.179,4.179,4.179,4.179,4.179,4.179,4.195,4.212,4.229,4.246,4.263,4.28,4.28,4.298,4.315,4.333,4.351,4.351,4.369,4.369,4.387,4.405,4.405,4.424,4.442,4.442,4.461,4.48,4.48,4.499,4.499,4.499,4.499,4.518,4.518,4.518,4.518,4.518,4.518,4.518,4.518,4.518,4.499,4.499,4.499,4.48,4.48,4.48,4.461,4.461,4.442,4.424,4.405,4.405,4.387,4.369,4.351,4.333,4.315,4.298,4.298,4.28,4.28,4.28,4.298,4.315,4.333,4.351,4.369,4.387,4.424,4.442,4.461,4.48,4.48,4.499,4.499,4.499,4.499,4.48,4.48,4.461,4.461,4.442,4.442,4.424,4.424,4.424,4.405,4.405,4.405,4.405,4.405,4.405,4.405,4.405,4.405,4.405,4.424,4.424,4.442,4.442,4.461,4.461,4.48,4.499,4.518,4.538,4.538,4.557,4.577,4.577,4.577,4.577,4.597,4.597,4.617,4.617,4.617,4.617,4.637,4.637,4.637,4.637,4.658,4.658,4.678,4.678,4.678,4.678,4.678,4.678,4.658,4.658,4.637,4.637,4.637,4.617,4.597,4.577,4.538,4.518,4.48,4.461,4.424,4.387,4.351,4.315,4.298,4.246,4.212,4.179,4.13,4.098,4.051,4.02,3.99,3.975,3.945,3.93,3.916,3.916,3.901,3.901,3.887,3.873,3.859,3.831,3.803,3.762,3.736,3.697,3.658,3.621,3.584,3.56,3.524,3.501,3.489,3.466,3.444,3.41,3.389,3.356,3.335,3.304,3.273,3.243,3.214,3.194,3.175,3.165,3.147,3.137,3.128,3.119,3.1,3.082,3.065,3.029,2.995,2.97,2.945,2.921,2.897,2.873,2.865,2.857,2.865,2.857,2.857,2.857,2.857,2.865,2.865,2.865,2.865,2.865,2.857,2.857,2.857,2.85,2.85,2.842,2.834,2.827,2.819,2.812,2.804,2.797,2.797,2.79,2.79,2.79,2.79,2.79,2.79,2.79,2.79,2.797,2.797,2.797,2.79,2.782,2.782,2.782,2.782,2.782,2.782,2.782,2.782,2.79,2.79,2.797,2.804,2.812,2.819,2.819,2.827,2.834,2.834,2.842,2.842,2.842,2.834,2.834,2.827,2.819,2.819,2.812,2.804,2.804,2.797,2.797,2.797,2.79,2.79,2.79,2.79,2.797,2.797,2.797,2.804,2.804,2.804,2.812,2.812,2.812,2.804,2.804,2.804,2.804,2.804,2.804,2.804,2.804
3.119,3.137,3.165,3.194,3.233,3.263,3.304,3.335,3.367,3.389,3.41,3.444,3.478,3.501,3.512,3.536,3.56,3.572,3.608,3.621,3.633,3.633,3.646,3.646,3.646,3.646,3.658,3.658,3.658,3.671,3.684,3.684,3.71,3.723,3.736,3.749,3.749,3.762,3.762,3.762,3.762,3.749,3.749,3.749,3.749,3.736,3.736,3.723,3.71,3.697,3.697,3.697,3.684,3.671,3.671,3.658,3.658,3.646,3.646,3.646,3.646,3.646,3.646,3.646,3.646,3.646,3.646,3.658,3.658,3.658,3.658,3.658,3.658,3.658,3.658,3.671,3.671,3.671,3.671,3.671,3.671,3.671,3.671,3.671,3.671,3.671,3.671,3.671,3.658,3.658,3.658,3.658,3.658,3.658,3.646,3.646,3.633,3.633,3.633,3.621,3.621,3.608,3.608,3.608,3.596,3.596,3.596,3.596,3.596,3.608,3.608,3.608,3.621,3.621,3.633,3.633,3.633,3.646,3.646,3.646,3.658,3.658,3.658,3.658,3.671,3.684,3.684,3.697,3.697,3.71,3.71,3.71,3.71,3.71,3.71,3.71,3.697,3.697,3.697,3.697,3.697,3.697,3.684,3.684,3.684,3.684,3.684,3.684,3.671,3.671,3.671,3.658,3.658,3.658,3.646,3.646,3.633,3.633,3.621,3.621,3.608,3.608,3.596,3.596,3.596,3.596,3.596,3.596,3.596,3.596,3.596,3.608,3.621,3.633,3.658,3.684,3.723,3.762,3.803,3.845,3.901,3.96,4.02,4.082,4.13,4.195,4.246,4.28,4.333,4.369,4.405,4.424,4.442,4.442,4.461,4.461,4.461,4.461,4.461,4.461,4.461,4.461,4.461,4.461,4.461,4.461,4.461,4.461,4.461,4.461,4.461,4.461,4.442,4.442,4.424,4.405,4.405,4.387,4.369,4.351,4.351,4.333,4.315,4.315,4.298,4.28,4.263,4.263,4.246,4.229,4.229,4.212,4.212,4.195,4.179,4.179,4.179,4.179,4.179,4.179,4.195,4.195,4.229,4.246,4.263,4.28,4.298,4.298,4.315,4.333,4.351,4.369,4.369,4.387,4.405,4.405,4.424,4.442,4.442,4.461,4.48,4.499,4.499,4.499,4.518,4.518,4.518,4.538,4.538,4.538,4.538,4.538,4.538,4.538,4.538,4.518,4.518,4.518,4.499,4.499,4.499,4.48,4.48,4.461,4.461,4.442,4.424,4.405,4.387,4.369,4.351,4.333,4.315,4.315,4.298,4.298,4.298,4.298,4.315,4.315,4.333,4.369,4.387,4.405,4.424,4.442,4.48,4.499,4.499,4.518,4.518,4.518,4.518,4.499,4.499,4.48,4.48,4.461,4.442,4.442,4.442,4.424,4.424,4.424,4.405,4.405,4.405,4.424,4.424,4.424,4.424,4.424,4.424,4.442,4.442,4.461,4.461,4.48,4.499,4.499,4.518,4.538,4.538,4.557,4.557,4.577,4.577,4.597,4.597,4.617,4.617,4.617,4.637,4.637,4.637,4.637,4.637,4.637,4.637,4.658,4.658,4.678,4.678,4.678,4.678,4.678,4.658,4.658,4.637,4.637,4.617,4.617,4.597,4.577,4.538,4.518,4.48,4.461,4.424,4.387,4.351,4.315,4.28,4.246,4.195,4.162,4.114,4.082,4.035,4.005,3.99,3.96,3.945,3.93,3.916,3.901,3.887,3.873,3.873,3.859,3.831,3.817,3.789,3.749,3.71,3.684,3.646,3.608,3.584,3.548,3.524,3.489,3.478,3.466,3.444,3.41,3.378,3.356,3.325,3.294,3.273,3.243,3.214,3.194,3.175,3.156,3.147,3.137,3.128,3.119,3.1,3.082,3.056,3.021,2.995,2.97,2.945,2.913,2.889,2.873,2.857,2.857,2.857,2.857,2.857,2.857,2.857,2.865,2.865,2.865,2.865,2.865,2.857,2.857,2.857,2.85,2.85,2.842,2.834,2.827,2.819,2.812,2.804,2.797,2.797,2.79,2.79,2.79,2.79,2.79,2.79,2.79,2.79,2.797,2.797,2.797,2.79,2.79,2.782,2.79,2.782,2.782,2.782,2.79,2.79,2.79,2.797,2.804,2.804,2.812,2.819,2.827,2.827,2.834,2.834,2.834,2.834,2.834,2.834,2.834,2.827,2.819,2.819,2.812,2.804,2.804,2.797,2.797,2.79,2.79,2.79,2.79,2.79,2.79,2.79,2.797,2.797,2.804,2.804,2.804,2.804,2.804,2.804,2.804,2.804,2.804,2.804,2.804,2.804,2.804
3.119,3.128,3.147,3.175,3.204,3.233,3.273,3.304,3.335,3.367,3.4,3.422,3.455,3.478,3.501,3.512,3.536,3.56,3.572,3.596,3.608,3.608,3.608,3.621,3.633,3.633,3.646,3.646,3.658,3.671,3.671,3.697,3.71,3.723,3.736,3.736,3.749,3.749,3.762,3.762,3.749,3.749,3.749,3.749,3.736,3.736,3.736,3.723,3.71,3.697,3.697,3.684,3.684,3.671,3.671,3.658,3.646,3.646,3.646,3.646,3.646,3.646,3.646,3.646,3.646,3.646,3.646,3.646,3.658,3.658,3.658,3.658,3.658,3.658,3.658,3.671,3.671,3.671,3.671,3.671,3.671,3.671,3.671,3.671,3.671,3.671,3.671,3.671,3.658,3.658,3.658,3.658,3.658,3.658,3.646,3.646,3.633,3.633,3.633,3.621,3.621,3.621,3.608,3.608,3.608,3.596,3.596,3.596,3.608,3.608,3.608,3.621,3.621,3.621,3.633,3.633,3.633,3.633,3.646,3.646,3.646,3.658,3.658,3.658,3.671,3.671,3.684,3.684,3.697,3.697,3.697,3.697,3.71,3.71,3.697,3.697,3.697,3.697,3.684,3.684,3.684,3.684,3.684,3.684,3.671,3.671,3.684,3.684,3.684,3.671,3.671,3.671,3.671,3.671,3.658,3.658,3.646,3.646,3.646,3.633,3.633,3.621,3.621,3.608,3.608,3.608,3.608,3.608,3.608,3.608,3.608,3.621,3.633,3.646,3.684,3.71,3.749,3.789,3.831,3.887,3.945,4.005,4.066,4.13,4.195,4.246,4.28,4.333,4.369,4.405,4.424,4.442,4.461,4.48,4.48,4.48,4.48,4.48,4.499,4.499,4.499,4.499,4.499,4.499,4.499,4.499,4.48,4.48,4.48,4.48,4.48,4.461,4.461,4.461,4.442,4.424,4.405,4.405,4.387,4.369,4.351,4.333,4.315,4.298,4.298,4.28,4.263,4.246,4.246,4.229,4.229,4.212,4.195,4.179,4.179,4.179,4.179,4.179,4.179,4.179,4.195,4.195,4.212,4.246,4.263,4.28,4.298,4.315,4.333,4.351,4.369,4.369,4.387,4.405,4.424,4.442,4.442,4.461,4.48,4.499,4.518,4.518,4.538,4.538,4.557,4.557,4.557,4.577,4.577,4.577,4.577,4.577,4.557,4.557,4.557,4.557,4.557,4.557,4.538,4.538,4.518,4.499,4.499,4.499,4.48,4.461,4.461,4.442,4.424,4.405,4.387,4.369,4.351,4.333,4.315,4.315,4.315,4.315,4.333,4.333,4.351,4.369,4.405,4.424,4.442,4.48,4.499,4.518,4.538,4.557,4.557,4.557,4.557,4.538,4.518,4.518,4.499,4.48,4.48,4.461,4.461,4.442,4.442,4.442,4.442,4.424,4.442,4.442,4.442,4.442,4.442,4.442,4.461,4.461,4.48,4.48,4.48,4.499,4.499,4.518,4.538,4.538,4.557,4.557,4.577,4.577,4.597,4.597,4.617,4.617,4.637,4.637,4.637,4.637,4.658,4.658,4.658,4.658,4.678,4.678,4.678,4.678,4.699,4.678,4.678,4.678,4.678,4.658,4.658,4.637,4.617,4.617,4.597,4.577,4.538,4.518,4.48,4.461,4.424,4.387,4.351,4.315,4.263,4.229,4.179,4.146,4.098,4.051,4.02,3.99,3.96,3.93,3.916,3.901,3.887,3.873,3.859,3.859,3.845,3.831,3.817,3.789,3.762,3.736,3.697,3.671,3.633,3.596,3.572,3.536,3.501,3.489,3.466,3.455,3.433,3.41,3.378,3.346,3.314,3.294,3.263,3.233,3.204,3.184,3.165,3.156,3.137,3.128,3.119,3.11,3.091,3.073,3.047,3.012,2.987,2.953,2.929,2.905,2.889,2.865,2.857,2.85,2.85,2.85,2.857,2.857,2.857,2.865,2.865,2.865,2.865,2.865,2.857,2.857,2.85,2.85,2.842,2.834,2.827,2.827,2.819,2.819,2.812,2.804,2.804,2.797,2.797,2.797,2.797,2.797,2.797,2.797,2.797,2.797,2.797,2.797,2.797,2.797,2.797,2.797,2.797,2.797,2.797,2.797,2.797,2.797,2.804,2.804,2.812,2.812,2.819,2.819,2.827,2.827,2.834,2.834,2.834,2.834,2.834,2.827,2.827,2.819,2.819,2.812,2.812,2.804,2.797,2.79,2.79,2.79,2.782,2.782,2.782,2.782,2.79,2.79,2.797,2.797,2.804,2.804,2.804,2.804,2.804,2.804,2.804,2.804,2.804,2.804,2.804,2.797
3.137,3.147,3.165,3.184,3.204,3.233,3.273,3.304,3.335,3.356,3.389,3.41,3.444,3.466,3.478,3.501,3.512,3.524,3.548,3.56,3.572,3.584,3.584,3.596,3.608,3.608,3.633,3.633,3.646,3.658,3.671,3.697,3.71,3.723,3.736,3.736,3.749,3.749,3.749,3.749,3.749,3.749,3.749,3.736,3.736,3.736,3.723,3.71,3.71,3.697,3.697,3.684,3.671,3.671,3.671,3.658,3.646,3.646,3.646,3.646,3.633,3.633,3.646,3.646,3.646,3.646,3.646,3.646,3.646,3.658,3.658,3.658,3.658,3.658,3.671,3.671,3.671,3.671,3.671,3.671,3.671,3.671,3.671,3.671,3.671,3.671,3.671,3.671,3.671,3.658,3.658,3.658,3.658,3.658,3.658,3.646,3.646,3.633,3.633,3.633,3.633,3.621,3.621,3.621,3.608,3.608,3.608,3.608,3.608,3.608,3.608,3.621,3.621,3.621,3.633,3.633,3.633,3.633,3.633,3.646,3.646,3.646,3.658,3.658,3.658,3.671,3.671,3.671,3.684,3.697,3.697,3.697,3.697,3.684,3.697,3.684,3.684,3.684,3.684,3.684,3.684,3.684,3.671,3.671,3.671,3.671,3.684,3.684,3.684,3.671,3.671,3.671,3.684,3.671,3.671,3.658,3.658,3.658,3.646,3.646,3.646,3.633,3.633,3.621,3.621,3.621,3.621,3.621,3.608,3.621,3.621,3.633,3.646,3.671,3.697,3.723,3.762,3.817,3.873,3.93,4.005,4.066,4.13,4.195,4.246,4.298,4.333,4.369,4.405,4.442,4.461,4.48,4.48,4.499,4.499,4.518,4.518,4.518,4.518,4.518,4.518,4.518,4.518,4.518,4.499,4.499,4.499,4.499,4.499,4.499,4.499,4.48,4.48,4.48,4.461,4.442,4.424,4.405,4.387,4.369,4.351,4.333,4.315,4.298,4.298,4.28,4.263,4.246,4.246,4.229,4.229,4.212,4.195,4.179,4.179,4.162,4.162,4.162,4.179,4.179,4.195,4.195,4.212,4.246,4.263,4.28,4.298,4.315,4.333,4.351,4.369,4.387,4.405,4.424,4.442,4.461,4.48,4.48,4.499,4.518,4.538,4.538,4.557,4.577,4.577,4.577,4.597,4.597,4.597,4.597,4.597,4.597,4.597,4.577,4.577,4.577,4.577,4.577,4.557,4.557,4.538,4.538,4.518,4.518,4.499,4.499,4.48,4.461,4.442,4.424,4.405,4.387,4.369,4.351,4.333,4.333,4.333,4.333,4.351,4.351,4.369,4.387,4.424,4.442,4.48,4.499,4.518,4.557,4.577,4.577,4.597,4.597,4.597,4.577,4.557,4.557,4.538,4.518,4.518,4.499,4.499,4.48,4.48,4.48,4.461,4.461,4.461,4.461,4.48,4.48,4.48,4.48,4.48,4.499,4.499,4.499,4.499,4.518,4.518,4.538,4.557,4.557,4.577,4.577,4.597,4.597,4.617,4.617,4.637,4.637,4.637,4.658,4.658,4.658,4.678,4.678,4.678,4.678,4.678,4.699,4.699,4.699,4.699,4.699,4.678,4.678,4.678,4.658,4.658,4.637,4.617,4.597,4.577,4.557,4.538,4.518,4.48,4.442,4.405,4.369,4.333,4.298,4.246,4.212,4.162,4.114,4.066,4.035,4.005,3.975,3.945,3.916,3.901,3.887,3.873,3.859,3.831,3.817,3.817,3.803,3.776,3.762,3.736,3.71,3.671,3.646,3.608,3.572,3.548,3.524,3.489,3.478,3.455,3.433,3.422,3.4,3.367,3.335,3.314,3.283,3.253,3.233,3.204,3.184,3.165,3.147,3.137,3.128,3.11,3.1,3.082,3.065,3.038,3.004,2.978,2.945,2.921,2.905,2.881,2.865,2.85,2.842,2.85,2.85,2.85,2.85,2.857,2.857,2.857,2.857,2.857,2.857,2.857,2.85,2.85,2.842,2.834,2.834,2.827,2.827,2.819,2.819,2.812,2.804,2.804,2.797,2.797,2.797,2.797,2.797,2.797,2.797,2.797,2.797,2.797,2.797,2.797,2.797,2.797,2.797,2.797,2.797,2.797,2.797,2.804,2.804,2.804,2.804,2.812,2.812,2.819,2.819,2.827,2.827,2.834,2.834,2.834,2.834,2.834,2.834,2.827,2.819,2.819,2.812,2.804,2.804,2.797,2.79,2.79,2.782,2.782,2.782,2.782,2.782,2.782,2.79,2.79,2.797,2.797,2.797,2.804,2.804,2.804,2.804,2.804,2.797,2.797,2.797,2.797,2.79
3.165,3.175,3.194,3.204,3.214,3.243,3.263,3.294,3.335,3.356,3.378,3.4,3.433,3.444,3.466,3.478,3.489,3.512,3.524,3.536,3.548,3.56,3.572,3.572,3.584,3.596,3.608,3.621,3.646,3.658,3.671,3.697,3.71,3.723,3.736,3.736,3.749,3.749,3.749,3.736,3.736,3.736,3.736,3.736,3.723,3.723,3.71,3.71,3.697,3.697,3.684,3.684,3.671,3.671,3.671,3.658,3.646,3.646,3.646,3.646,3.633,3.633,3.633,3.633,3.633,3.633,3.646,3.646,3.646,3.646,3.646,3.658,3.658,3.658,3.658,3.671,3.671,3.671,3.671,3.671,3.671,3.671,3.671,3.671,3.671,3.671,3.671,3.671,3.671,3.671,3.658,3.658,3.658,3.658,3.658,3.658,3.658,3.646,3.646,3.646,3.633,3.633,3.633,3.633,3.621,3.621,3.621,3.608,3.608,3.608,3.608,3.621,3.621,3.621,3.633,3.633,3.633,3.633,3.633,3.633,3.633,3.646,3.646,3.646,3.658,3.658,3.658,3.671,3.671,3.671,3.671,3.671,3.671,3.671,3.671,3.671,3.671,3.671,3.671,3.671,3.671,3.671,3.671,3.671,3.671,3.671,3.671,3.684,3.684,3.684,3.684,3.684,3.684,3.684,3.684,3.671,3.671,3.658,3.658,3.658,3.658,3.646,3.646,3.633,3.633,3.633,3.633,3.633,3.633,3.633,3.633,3.658,3.658,3.684,3.71,3.749,3.789,3.859,3.916,3.99,4.051,4.13,4.195,4.263,4.298,4.351,4.387,4.405,4.442,4.461,4.48,4.499,4.499,4.518,4.538,4.538,4.538,4.538,4.538,4.538,4.538,4.538,4.538,4.538,4.538,4.538,4.538,4.518,4.518,4.518,4.518,4.499,4.499,4.499,4.48,4.461,4.442,4.424,4.405,4.369,4.351,4.333,4.315,4.298,4.28,4.263,4.263,4.246,4.229,4.212,4.212,4.195,4.179,4.179,4.162,4.162,4.162,4.162,4.162,4.179,4.179,4.195,4.212,4.246,4.263,4.28,4.298,4.315,4.333,4.351,4.369,4.387,4.405,4.424,4.442,4.48,4.499,4.499,4.518,4.538,4.557,4.557,4.577,4.597,4.597,4.597,4.617,4.617,4.617,4.617,4.617,4.617,4.617,4.617,4.597,4.597,4.597,4.597,4.597,4.577,4.577,4.557,4.557,4.557,4.538,4.518,4.518,4.499,4.48,4.461,4.442,4.424,4.405,4.387,4.369,4.351,4.351,4.369,4.369,4.387,4.405,4.424,4.442,4.461,4.499,4.518,4.557,4.577,4.597,4.617,4.637,4.637,4.637,4.617,4.617,4.597,4.577,4.557,4.557,4.538,4.518,4.518,4.518,4.499,4.499,4.499,4.499,4.499,4.499,4.518,4.518,4.518,4.518,4.518,4.538,4.538,4.538,4.538,4.557,4.557,4.577,4.577,4.577,4.597,4.597,4.617,4.617,4.637,4.658,4.658,4.658,4.678,4.678,4.678,4.699,4.699,4.699,4.699,4.699,4.699,4.699,4.699,4.699,4.678,4.678,4.678,4.658,4.658,4.637,4.637,4.617,4.597,4.577,4.538,4.518,4.499,4.461,4.424,4.405,4.369,4.333,4.28,4.229,4.195,4.146,4.098,4.051,4.02,3.975,3.945,3.93,3.901,3.873,3.859,3.845,3.817,3.817,3.803,3.776,3.762,3.749,3.736,3.71,3.684,3.658,3.621,3.584,3.56,3.536,3.512,3.478,3.455,3.433,3.422,3.4,3.378,3.346,3.325,3.304,3.273,3.253,3.223,3.194,3.175,3.156,3.147,3.128,3.119,3.1,3.091,3.073,3.047,3.029,2.995,2.97,2.945,2.921,2.897,2.873,2.857,2.85,2.842,2.842,2.842,2.842,2.842,2.85,2.85,2.85,2.85,2.85,2.85,2.85,2.842,2.842,2.834,2.834,2.827,2.827,2.819,2.819,2.812,2.812,2.804,2.804,2.797,2.797,2.79,2.79,2.79,2.79,2.79,2.79,2.797,2.797,2.797,2.797,2.797,2.797,2.804,2.804,2.804,2.804,2.804,2.812,2.812,2.812,2.819,2.819,2.819,2.827,2.827,2.834,2.834,2.834,2.834,2.834,2.834,2.834,2.834,2.827,2.827,2.819,2.812,2.804,2.804,2.797,2.79,2.782,2.782,2.782,2.775,2.775,2.775,2.782,2.782,2.79,2.79,2.797,2.797,2.797,2.804,2.804,2.804,2.804,2.797,2.797,2.797,2.79,2.79
3.194,3.214,3.214,3.223,3.243,3.253,3.273,3.304,3.335,3.356,3.378,3.389,3.422,3.433,3.455,3.466,3.466,3.478,3.501,3.512,3.512,3.524,3.536,3.56,3.572,3.584,3.596,3.621,3.633,3.646,3.671,3.697,3.71,3.71,3.723,3.736,3.736,3.736,3.736,3.736,3.736,3.736,3.723,3.723,3.723,3.71,3.697,3.697,3.697,3.697,3.684,3.684,3.671,3.671,3.671,3.658,3.658,3.646,3.646,3.646,3.646,3.646,3.633,3.633,3.633,3.633,3.633,3.633,3.633,3.646,3.646,3.646,3.658,3.658,3.658,3.658,3.671,3.671,3.671,3.671,3.671,3.671,3.671,3.671,3.671,3.671,3.671,3.671,3.671,3.671,3.671,3.671,3.671,3.671,3.671,3.671,3.658,3.658,3.658,3.658,3.646,3.646,3.633,3.633,3.633,3.633,3.621,3.621,3.621,3.621,3.621,3.621,3.621,3.621,3.621,3.633,3.633,3.633,3.633,3.633,3.633,3.633,3.633,3.633,3.646,3.646,3.646,3.658,3.658,3.671,3.671,3.671,3.671,3.671,3.671,3.671,3.671,3.671,3.671,3.671,3.671,3.671,3.671,3.671,3.671,3.671,3.684,3.684,3.684,3.684,3.684,3.684,3.684,3.684,3.684,3.684,3.671,3.671,3.671,3.671,3.658,3.658,3.658,3.646,3.646,3.646,3.646,3.646,3.646,3.646,3.658,3.671,3.684,3.697,3.723,3.776,3.831,3.901,3.975,4.035,4.114,4.195,4.28,4.315,4.369,4.387,4.424,4.461,4.48,4.499,4.499,4.518,4.518,4.538,4.557,4.557,4.557,4.557,4.557,4.577,4.577,4.577,4.557,4.557,4.557,4.557,4.557,4.557,4.557,4.557,4.538,4.538,4.538,4.518,4.499,4.48,4.461,4.442,4.424,4.387,4.369,4.351,4.333,4.298,4.28,4.263,4.246,4.229,4.229,4.212,4.195,4.195,4.179,4.162,4.162,4.146,4.162,4.162,4.162,4.179,4.179,4.195,4.212,4.246,4.263,4.298,4.315,4.333,4.351,4.369,4.387,4.405,4.424,4.442,4.461,4.499,4.518,4.538,4.538,4.577,4.577,4.597,4.617,4.617,4.617,4.637,4.637,4.637,4.637,4.637,4.637,4.637,4.637,4.637,4.637,4.617,4.637,4.637,4.617,4.617,4.597,4.597,4.597,4.577,4.577,4.577,4.557,4.538,4.518,4.499,4.48,4.461,4.442,4.424,4.405,4.387,4.387,4.387,4.387,4.405,4.424,4.442,4.461,4.499,4.518,4.557,4.577,4.617,4.637,4.658,4.678,4.678,4.678,4.658,4.658,4.637,4.617,4.597,4.597,4.577,4.557,4.557,4.557,4.538,4.538,4.538,4.538,4.538,4.538,4.538,4.538,4.557,4.557,4.557,4.557,4.557,4.557,4.577,4.577,4.577,4.577,4.597,4.597,4.597,4.617,4.617,4.637,4.658,4.658,4.678,4.678,4.699,4.699,4.699,4.72,4.72,4.72,4.72,4.72,4.72,4.699,4.699,4.699,4.678,4.678,4.658,4.658,4.637,4.637,4.617,4.597,4.577,4.557,4.538,4.518,4.48,4.461,4.424,4.387,4.351,4.315,4.263,4.229,4.179,4.13,4.082,4.035,3.99,3.96,3.93,3.901,3.873,3.859,3.831,3.817,3.803,3.789,3.776,3.762,3.736,3.723,3.697,3.684,3.658,3.621,3.596,3.572,3.548,3.512,3.489,3.466,3.444,3.433,3.41,3.389,3.367,3.346,3.314,3.294,3.273,3.243,3.214,3.194,3.175,3.156,3.137,3.128,3.11,3.091,3.073,3.065,3.038,3.012,2.987,2.961,2.937,2.913,2.889,2.873,2.857,2.842,2.834,2.842,2.842,2.842,2.842,2.842,2.842,2.842,2.842,2.842,2.842,2.842,2.842,2.834,2.834,2.834,2.827,2.819,2.819,2.812,2.812,2.804,2.804,2.797,2.797,2.79,2.79,2.782,2.782,2.782,2.782,2.79,2.79,2.797,2.797,2.797,2.797,2.804,2.804,2.804,2.812,2.812,2.812,2.819,2.819,2.819,2.819,2.827,2.827,2.827,2.827,2.834,2.834,2.834,2.842,2.842,2.842,2.834,2.834,2.827,2.827,2.819,2.819,2.812,2.804,2.797,2.79,2.782,2.782,2.782,2.775,2.775,2.775,2.782,2.782,2.782,2.79,2.797,2.797,2.797,2.797,2.797,2.797,2.797,2.797,2.79,2.782,2.782,2.775
3.223,3.233,3.243,3.243,3.263,3.273,3.294,3.314,3.335,3.356,3.378,3.389,3.41,3.422,3.444,3.455,3.455,3.466,3.478,3.489,3.501,3.512,3.536,3.548,3.56,3.572,3.596,3.621,3.633,3.646,3.671,3.697,3.71,3.71,3.723,3.723,3.723,3.723,3.723,3.723,3.723,3.723,3.723,3.71,3.697,3.697,3.697,3.697,3.697,3.684,3.684,3.671,3.671,3.671,3.671,3.671,3.658,3.646,3.646,3.646,3.646,3.646,3.646,3.633,3.633,3.633,3.633,3.633,3.633,3.633,3.633,3.633,3.646,3.646,3.658,3.658,3.658,3.658,3.671,3.671,3.671,3.671,3.671,3.671,3.671,3.671,3.671,3.671,3.671,3.671,3.671,3.671,3.671,3.671,3.671,3.671,3.671,3.671,3.671,3.671,3.658,3.658,3.646,3.646,3.633,3.633,3.633,3.621,3.621,3.621,3.621,3.621,3.621,3.621,3.621,3.621,3.621,3.621,3.633,3.633,3.633,3.633,3.633,3.633,3.633,3.633,3.646,3.646,3.646,3.646,3.646,3.658,3.658,3.658,3.658,3.658,3.658,3.658,3.658,3.658,3.658,3.671,3.671,3.671,3.671,3.671,3.684,3.684,3.684,3.684,3.684,3.684,3.684,3.697,3.684,3.684,3.684,3.671,3.671,3.671,3.671,3.658,3.658,3.658,3.658,3.658,3.658,3.658,3.658,3.671,3.671,3.684,3.697,3.723,3.749,3.817,3.873,3.96,4.035,4.114,4.195,4.28,4.351,4.387,4.424,4.442,4.48,4.499,4.499,4.518,4.538,4.538,4.557,4.557,4.577,4.577,4.577,4.597,4.597,4.597,4.597,4.597,4.597,4.597,4.597,4.597,4.577,4.577,4.577,4.577,4.577,4.577,4.557,4.538,4.518,4.518,4.48,4.461,4.442,4.405,4.369,4.351,4.333,4.315,4.28,4.263,4.246,4.229,4.212,4.212,4.195,4.179,4.179,4.162,4.162,4.146,4.146,4.162,4.162,4.179,4.179,4.195,4.212,4.246,4.263,4.298,4.315,4.333,4.351,4.387,4.405,4.442,4.461,4.48,4.499,4.518,4.538,4.557,4.577,4.597,4.597,4.617,4.637,4.637,4.637,4.658,4.658,4.658,4.658,4.658,4.658,4.658,4.658,4.658,4.658,4.658,4.658,4.658,4.658,4.658,4.637,4.637,4.637,4.637,4.617,4.617,4.597,4.597,4.577,4.557,4.538,4.499,4.48,4.461,4.442,4.424,4.405,4.424,4.424,4.424,4.442,4.461,4.48,4.518,4.538,4.577,4.597,4.637,4.658,4.678,4.699,4.699,4.699,4.699,4.699,4.678,4.658,4.637,4.637,4.617,4.597,4.597,4.577,4.577,4.577,4.577,4.577,4.577,4.577,4.577,4.577,4.577,4.577,4.577,4.577,4.577,4.577,4.597,4.597,4.597,4.597,4.597,4.617,4.617,4.637,4.637,4.658,4.678,4.678,4.699,4.699,4.72,4.72,4.72,4.72,4.72,4.72,4.72,4.72,4.72,4.72,4.72,4.699,4.678,4.678,4.658,4.658,4.637,4.617,4.617,4.597,4.577,4.557,4.538,4.499,4.48,4.442,4.424,4.387,4.351,4.298,4.263,4.212,4.162,4.114,4.066,4.02,3.975,3.945,3.916,3.887,3.859,3.845,3.817,3.803,3.776,3.762,3.749,3.736,3.71,3.697,3.671,3.658,3.633,3.608,3.572,3.548,3.524,3.501,3.478,3.455,3.433,3.422,3.4,3.378,3.356,3.335,3.304,3.283,3.263,3.233,3.214,3.194,3.165,3.156,3.128,3.119,3.1,3.082,3.065,3.047,3.029,3.004,2.978,2.953,2.929,2.905,2.889,2.865,2.85,2.842,2.834,2.834,2.834,2.834,2.834,2.834,2.834,2.842,2.842,2.842,2.842,2.834,2.834,2.834,2.827,2.827,2.819,2.819,2.812,2.812,2.804,2.804,2.797,2.797,2.797,2.79,2.79,2.782,2.782,2.782,2.782,2.782,2.79,2.79,2.797,2.797,2.804,2.804,2.804,2.812,2.812,2.819,2.819,2.819,2.827,2.827,2.827,2.827,2.834,2.834,2.834,2.834,2.842,2.842,2.842,2.842,2.842,2.842,2.834,2.834,2.827,2.819,2.819,2.804,2.797,2.797,2.79,2.782,2.782,2.782,2.775,2.775,2.775,2.782,2.782,2.782,2.79,2.79,2.797,2.797,2.797,2.797,2.797,2.79,2.79,2.782,2.775,2.768,2.768
3.243,3.253,3.263,3.273,3.283,3.294,3.314,3.325,3.346,3.356,3.378,3.389,3.4,3.422,3.433,3.444,3.444,3.455,3.466,3.478,3.489,3.501,3.524,3.548,3.56,3.572,3.596,3.621,3.633,3.646,3.671,3.697,3.697,3.71,3.723,3.723,3.723,3.723,3.723,3.71,3.71,3.71,3.697,3.697,3.697,3.697,3.697,3.684,3.684,3.684,3.671,3.671,3.671,3.671,3.671,3.671,3.671,3.658,3.658,3.646,3.646,3.646,3.646,3.633,3.633,3.633,3.633,3.633,3.633,3.633,3.633,3.633,3.633,3.633,3.646,3.658,3.658,3.658,3.671,3.671,3.671,3.671,3.671,3.671,3.671,3.671,3.671,3.671,3.671,3.671,3.671,3.684,3.684,3.684,3.684,3.684,3.684,3.671,3.671,3.671,3.671,3.671,3.658,3.658,3.646,3.646,3.633,3.633,3.621,3.621,3.621,3.621,3.621,3.608,3.608,3.621,3.621,3.621,3.621,3.621,3.621,3.621,3.633,3.633,3.633,3.633,3.633,3.633,3.633,3.646,3.646,3.646,3.646,3.646,3.646,3.646,3.646,3.646,3.646,3.646,3.658,3.658,3.671,3.671,3.671,3.671,3.671,3.684,3.684,3.684,3.684,3.684,3.684,3.684,3.684,3.684,3.684,3.684,3.671,3.671,3.671,3.671,3.671,3.671,3.671,3.671,3.671,3.671,3.671,3.684,3.697,3.71,3.723,3.736,3.789,3.845,3.93,4.02,4.098,4.195,4.28,4.351,4.405,4.442,4.48,4.499,4.518,4.538,4.538,4.557,4.557,4.557,4.577,4.597,4.597,4.597,4.617,4.617,4.617,4.617,4.617,4.617,4.617,4.617,4.617,4.617,4.617,4.617,4.617,4.597,4.597,4.597,4.577,4.577,4.557,4.538,4.499,4.48,4.442,4.424,4.387,4.369,4.351,4.315,4.298,4.263,4.246,4.229,4.212,4.195,4.195,4.179,4.179,4.162,4.162,4.146,4.146,4.162,4.162,4.179,4.179,4.195,4.229,4.246,4.263,4.298,4.315,4.333,4.369,4.387,4.424,4.442,4.48,4.499,4.518,4.538,4.557,4.597,4.597,4.617,4.617,4.637,4.658,4.658,4.658,4.678,4.678,4.678,4.678,4.699,4.699,4.699,4.699,4.699,4.699,4.699,4.699,4.699,4.699,4.699,4.678,4.678,4.678,4.678,4.658,4.658,4.658,4.637,4.617,4.597,4.577,4.538,4.518,4.499,4.461,4.442,4.442,4.442,4.442,4.442,4.461,4.48,4.499,4.538,4.557,4.597,4.637,4.658,4.678,4.699,4.72,4.741,4.741,4.741,4.72,4.72,4.699,4.699,4.678,4.658,4.637,4.637,4.617,4.617,4.617,4.617,4.617,4.617,4.617,4.617,4.617,4.617,4.617,4.617,4.597,4.597,4.617,4.617,4.617,4.617,4.617,4.637,4.637,4.637,4.658,4.658,4.678,4.678,4.699,4.72,4.72,4.72,4.72,4.741,4.741,4.741,4.741,4.72,4.72,4.72,4.72,4.72,4.699,4.678,4.658,4.658,4.637,4.637,4.617,4.597,4.577,4.557,4.538,4.518,4.499,4.461,4.442,4.405,4.369,4.333,4.298,4.246,4.195,4.146,4.098,4.051,4.005,3.96,3.93,3.901,3.873,3.859,3.831,3.817,3.789,3.776,3.762,3.736,3.723,3.697,3.684,3.658,3.633,3.608,3.596,3.56,3.536,3.512,3.489,3.466,3.444,3.433,3.41,3.389,3.367,3.346,3.325,3.294,3.273,3.253,3.233,3.204,3.184,3.165,3.147,3.128,3.11,3.1,3.082,3.056,3.038,3.021,2.995,2.97,2.945,2.921,2.905,2.881,2.865,2.85,2.842,2.834,2.834,2.834,2.834,2.834,2.834,2.834,2.834,2.842,2.834,2.834,2.834,2.834,2.827,2.827,2.819,2.819,2.812,2.812,2.812,2.804,2.804,2.797,2.797,2.797,2.79,2.79,2.782,2.782,2.782,2.782,2.782,2.79,2.797,2.797,2.797,2.804,2.804,2.812,2.812,2.819,2.819,2.819,2.827,2.827,2.827,2.834,2.834,2.842,2.842,2.842,2.842,2.85,2.85,2.85,2.85,2.85,2.842,2.842,2.834,2.827,2.819,2.812,2.804,2.797,2.797,2.79,2.782,2.782,2.782,2.782,2.782,2.782,2.782,2.782,2.79,2.79,2.797,2.797,2.797,2.797,2.79,2.79,2.782,2.782,2.775,2.768,2.76,2.753
3.263,3.273,3.283,3.283,3.294,3.304,3.314,3.335,3.346,3.356,3.367,3.378,3.389,3.41,3.422,3.433,3.444,3.455,3.466,3.478,3.489,3.501,3.524,3.536,3.548,3.572,3.596,3.608,3.633,3.646,3.671,3.684,3.697,3.71,3.71,3.723,3.723,3.71,3.71,3.697,3.697,3.697,3.697,3.697,3.684,3.684,3.684,3.671,3.671,3.671,3.671,3.671,3.671,3.671,3.671,3.671,3.671,3.671,3.671,3.658,3.646,3.646,3.646,3.646,3.633,3.633,3.633,3.633,3.633,3.633,3.633,3.633,3.633,3.633,3.633,3.646,3.658,3.658,3.658,3.671,3.671,3.671,3.684,3.684,3.684,3.684,3.684,3.684,3.684,3.684,3.684,3.684,3.697,3.697,3.697,3.697,3.697,3.684,3.684,3.684,3.671,3.671,3.671,3.658,3.646,3.646,3.646,3.633,3.633,3.621,3.621,3.621,3.608,3.608,3.608,3.608,3.621,3.621,3.621,3.621,3.621,3.621,3.621,3.621,3.621,3.621,3.621,3.621,3.621,3.621,3.621,3.633,3.633,3.633,3.633,3.633,3.646,3.646,3.646,3.646,3.646,3.658,3.658,3.671,3.671,3.671,3.671,3.671,3.671,3.671,3.671,3.684,3.684,3.684,3.684,3.684,3.684,3.684,3.671,3.671,3.671,3.671,3.671,3.671,3.671,3.684,3.684,3.684,3.684,3.697,3.71,3.736,3.749,3.776,3.831,3.887,3.975,4.066,4.162,4.263,4.333,4.424,4.48,4.518,4.538,4.557,4.557,4.557,4.577,4.577,4.577,4.597,4.617,4.617,4.617,4.637,4.637,4.637,4.637,4.658,4.658,4.658,4.637,4.637,4.637,4.637,4.637,4.658,4.637,4.637,4.637,4.637,4.637,4.597,4.577,4.557,4.538,4.499,4.48,4.442,4.405,4.387,4.351,4.315,4.298,4.28,4.246,4.229,4.212,4.212,4.195,4.179,4.162,4.162,4.162,4.146,4.146,4.162,4.162,4.179,4.179,4.195,4.229,4.246,4.263,4.298,4.315,4.351,4.369,4.405,4.442,4.461,4.499,4.518,4.557,4.577,4.577,4.617,4.617,4.637,4.637,4.658,4.678,4.678,4.678,4.699,4.699,4.72,4.72,4.72,4.72,4.72,4.72,4.72,4.72,4.72,4.72,4.741,4.741,4.72,4.72,4.72,4.72,4.72,4.699,4.699,4.678,4.678,4.658,4.637,4.597,4.577,4.538,4.518,4.48,4.48,4.461,4.461,4.461,4.461,4.48,4.499,4.518,4.538,4.577,4.617,4.658,4.678,4.699,4.72,4.741,4.762,4.762,4.762,4.741,4.741,4.72,4.72,4.699,4.699,4.678,4.678,4.658,4.658,4.658,4.658,4.658,4.658,4.658,4.658,4.637,4.637,4.637,4.637,4.637,4.637,4.637,4.637,4.637,4.637,4.637,4.658,4.658,4.658,4.658,4.678,4.678,4.699,4.72,4.72,4.741,4.741,4.741,4.762,4.762,4.762,4.741,4.741,4.741,4.72,4.72,4.72,4.699,4.678,4.658,4.658,4.637,4.617,4.597,4.577,4.577,4.557,4.518,4.499,4.48,4.461,4.424,4.405,4.369,4.333,4.28,4.246,4.195,4.146,4.098,4.051,4.005,3.96,3.93,3.901,3.873,3.845,3.831,3.803,3.789,3.776,3.749,3.736,3.71,3.697,3.671,3.646,3.621,3.596,3.584,3.56,3.524,3.512,3.489,3.466,3.444,3.422,3.41,3.389,3.367,3.346,3.325,3.294,3.273,3.253,3.223,3.204,3.184,3.165,3.147,3.128,3.11,3.091,3.073,3.056,3.029,3.012,2.995,2.961,2.945,2.921,2.897,2.881,2.865,2.85,2.842,2.834,2.834,2.834,2.834,2.827,2.834,2.834,2.834,2.834,2.834,2.827,2.827,2.827,2.819,2.819,2.819,2.819,2.812,2.812,2.812,2.812,2.804,2.797,2.797,2.797,2.797,2.79,2.79,2.79,2.79,2.79,2.79,2.79,2.797,2.804,2.804,2.804,2.812,2.812,2.812,2.819,2.827,2.827,2.827,2.834,2.834,2.834,2.842,2.842,2.85,2.85,2.85,2.85,2.85,2.85,2.85,2.85,2.842,2.842,2.834,2.827,2.819,2.812,2.804,2.797,2.797,2.79,2.782,2.782,2.782,2.782,2.782,2.782,2.782,2.79,2.79,2.797,2.797,2.797,2.797,2.79,2.79,2.79,2.782,2.775,2.768,2.76,2.753,2.746
3.273,3.283,3.283,3.294,3.304,3.314,3.325,3.325,3.346,3.356,3.367,3.378,3.389,3.4,3.422,3.433,3.433,3.444,3.466,3.478,3.489,3.501,3.524,3.536,3.548,3.56,3.596,3.608,3.633,3.646,3.658,3.684,3.697,3.71,3.71,3.71,3.71,3.697,3.697,3.697,3.697,3.684,3.684,3.684,3.671,3.671,3.671,3.671,3.671,3.671,3.671,3.671,3.671,3.684,3.684,3.684,3.671,3.671,3.671,3.671,3.658,3.646,3.646,3.646,3.633,3.633,3.633,3.633,3.621,3.621,3.633,3.633,3.633,3.633,3.633,3.646,3.646,3.658,3.658,3.671,3.671,3.684,3.684,3.684,3.684,3.684,3.684,3.684,3.684,3.697,3.697,3.697,3.697,3.697,3.697,3.697,3.697,3.697,3.697,3.684,3.684,3.671,3.671,3.671,3.658,3.646,3.646,3.633,3.633,3.621,3.621,3.621,3.621,3.621,3.621,3.621,3.621,3.621,3.621,3.621,3.621,3.621,3.621,3.621,3.621,3.621,3.608,3.608,3.608,3.621,3.621,3.621,3.621,3.621,3.621,3.621,3.621,3.621,3.633,3.633,3.646,3.646,3.658,3.658,3.658,3.671,3.671,3.671,3.671,3.671,3.671,3.671,3.671,3.684,3.671,3.671,3.671,3.671,3.671,3.671,3.671,3.671,3.671,3.684,3.684,3.697,3.697,3.697,3.71,3.723,3.736,3.762,3.776,3.803,3.859,3.93,4.035,4.114,4.212,4.298,4.387,4.48,4.518,4.538,4.557,4.577,4.597,4.597,4.597,4.597,4.617,4.617,4.637,4.637,4.637,4.658,4.658,4.658,4.658,4.678,4.678,4.678,4.658,4.658,4.678,4.678,4.678,4.678,4.678,4.678,4.678,4.678,4.658,4.637,4.617,4.597,4.557,4.538,4.499,4.461,4.424,4.387,4.369,4.333,4.298,4.28,4.263,4.246,4.229,4.212,4.195,4.179,4.179,4.162,4.162,4.162,4.162,4.162,4.179,4.179,4.195,4.212,4.229,4.246,4.28,4.298,4.333,4.369,4.387,4.424,4.461,4.48,4.518,4.538,4.577,4.597,4.617,4.637,4.637,4.658,4.658,4.678,4.699,4.699,4.699,4.72,4.72,4.72,4.72,4.741,4.741,4.741,4.741,4.762,4.762,4.762,4.762,4.762,4.762,4.762,4.762,4.762,4.741,4.762,4.741,4.741,4.72,4.699,4.678,4.658,4.637,4.597,4.577,4.538,4.518,4.499,4.48,4.48,4.48,4.499,4.499,4.518,4.538,4.557,4.597,4.637,4.658,4.699,4.72,4.741,4.762,4.784,4.784,4.784,4.784,4.762,4.762,4.741,4.741,4.72,4.72,4.699,4.699,4.699,4.678,4.678,4.678,4.678,4.678,4.678,4.678,4.678,4.658,4.658,4.658,4.658,4.637,4.658,4.658,4.658,4.658,4.658,4.658,4.678,4.678,4.678,4.699,4.72,4.72,4.741,4.741,4.762,4.762,4.762,4.762,4.762,4.741,4.741,4.741,4.72,4.72,4.72,4.699,4.678,4.658,4.658,4.637,4.617,4.597,4.577,4.557,4.538,4.518,4.499,4.48,4.442,4.424,4.387,4.369,4.333,4.28,4.246,4.195,4.146,4.098,4.035,4.005,3.96,3.93,3.901,3.873,3.859,3.831,3.817,3.789,3.762,3.749,3.736,3.71,3.684,3.671,3.646,3.621,3.596,3.572,3.548,3.524,3.501,3.489,3.466,3.444,3.422,3.41,3.389,3.367,3.346,3.325,3.294,3.273,3.253,3.223,3.204,3.184,3.165,3.147,3.128,3.11,3.091,3.065,3.047,3.021,3.004,2.987,2.961,2.937,2.921,2.897,2.881,2.865,2.857,2.842,2.834,2.834,2.834,2.827,2.827,2.827,2.827,2.827,2.827,2.827,2.827,2.819,2.819,2.819,2.819,2.812,2.812,2.812,2.812,2.812,2.812,2.804,2.804,2.797,2.797,2.797,2.797,2.797,2.79,2.79,2.797,2.797,2.797,2.804,2.804,2.804,2.804,2.812,2.812,2.819,2.819,2.827,2.827,2.834,2.834,2.834,2.842,2.842,2.85,2.85,2.857,2.857,2.857,2.857,2.857,2.857,2.85,2.842,2.842,2.834,2.827,2.819,2.812,2.804,2.797,2.797,2.797,2.79,2.79,2.79,2.79,2.79,2.79,2.797,2.797,2.797,2.797,2.797,2.797,2.797,2.797,2.79,2.782,2.782,2.768,2.768,2.753,2.746,2.739
3.273,3.283,3.294,3.294,3.304,3.314,3.325,3.325,3.346,3.356,3.367,3.367,3.389,3.4,3.41,3.422,3.433,3.444,3.466,3.478,3.489,3.501,3.524,3.536,3.548,3.572,3.596,3.621,3.633,3.646,3.671,3.684,3.697,3.697,3.71,3.71,3.697,3.697,3.697,3.684,3.684,3.684,3.671,3.671,3.671,3.671,3.671,3.671,3.671,3.671,3.671,3.671,3.671,3.684,3.684,3.684,3.684,3.671,3.671,3.671,3.671,3.658,3.646,3.646,3.633,3.633,3.633,3.633,3.621,3.621,3.621,3.633,3.633,3.633,3.633,3.646,3.646,3.658,3.671,3.671,3.671,3.684,3.684,3.697,3.697,3.697,3.697,3.697,3.697,3.697,3.697,3.697,3.697,3.71,3.71,3.697,3.697,3.697,3.697,3.697,3.684,3.684,3.671,3.671,3.658,3.646,3.646,3.646,3.633,3.633,3.633,3.621,3.621,3.621,3.621,3.621,3.621,3.633,3.633,3.633,3.621,3.621,3.621,3.621,3.621,3.608,3.608,3.608,3.608,3.608,3.608,3.608,3.608,3.608,3.608,3.621,3.621,3.621,3.621,3.621,3.633,3.646,3.646,3.646,3.658,3.658,3.671,3.671,3.671,3.671,3.671,3.671,3.671,3.671,3.671,3.671,3.671,3.671,3.671,3.671,3.671,3.671,3.684,3.684,3.697,3.71,3.71,3.71,3.723,3.736,3.762,3.776,3.789,3.845,3.901,3.99,4.066,4.162,4.263,4.351,4.442,4.518,4.557,4.577,4.597,4.617,4.617,4.617,4.637,4.617,4.637,4.637,4.658,4.658,4.678,4.678,4.678,4.699,4.699,4.699,4.699,4.699,4.699,4.699,4.699,4.699,4.699,4.699,4.699,4.699,4.699,4.699,4.678,4.678,4.658,4.617,4.597,4.557,4.518,4.48,4.442,4.405,4.387,4.351,4.315,4.298,4.263,4.246,4.229,4.212,4.212,4.195,4.179,4.179,4.179,4.162,4.162,4.179,4.179,4.195,4.195,4.212,4.246,4.263,4.28,4.298,4.333,4.369,4.405,4.442,4.48,4.499,4.538,4.577,4.597,4.617,4.637,4.658,4.658,4.678,4.678,4.699,4.699,4.72,4.72,4.72,4.741,4.741,4.762,4.762,4.762,4.762,4.762,4.784,4.784,4.784,4.806,4.806,4.806,4.806,4.806,4.806,4.806,4.784,4.784,4.762,4.762,4.741,4.72,4.699,4.658,4.617,4.597,4.557,4.538,4.518,4.518,4.499,4.499,4.518,4.518,4.538,4.557,4.577,4.597,4.637,4.678,4.699,4.72,4.762,4.784,4.806,4.806,4.806,4.806,4.806,4.784,4.762,4.762,4.741,4.741,4.741,4.72,4.72,4.72,4.699,4.699,4.699,4.699,4.699,4.699,4.699,4.678,4.678,4.678,4.678,4.658,4.658,4.658,4.658,4.678,4.678,4.678,4.678,4.678,4.678,4.699,4.72,4.72,4.741,4.741,4.762,4.762,4.762,4.762,4.762,4.741,4.741,4.741,4.72,4.72,4.72,4.699,4.678,4.658,4.637,4.637,4.617,4.597,4.577,4.557,4.538,4.518,4.499,4.461,4.442,4.424,4.387,4.351,4.315,4.28,4.246,4.195,4.146,4.098,4.051,4.005,3.96,3.93,3.901,3.887,3.859,3.831,3.817,3.803,3.789,3.762,3.736,3.723,3.71,3.684,3.658,3.633,3.608,3.584,3.56,3.536,3.512,3.489,3.466,3.455,3.433,3.422,3.4,3.378,3.346,3.335,3.304,3.283,3.253,3.233,3.214,3.184,3.165,3.147,3.128,3.11,3.082,3.065,3.047,3.021,3.004,2.987,2.961,2.937,2.921,2.897,2.881,2.873,2.857,2.842,2.834,2.834,2.834,2.827,2.827,2.827,2.827,2.827,2.827,2.827,2.819,2.819,2.819,2.819,2.812,2.812,2.812,2.812,2.812,2.812,2.812,2.812,2.804,2.804,2.804,2.804,2.804,2.804,2.804,2.804,2.804,2.804,2.804,2.804,2.812,2.812,2.812,2.819,2.819,2.819,2.827,2.827,2.834,2.834,2.842,2.842,2.842,2.85,2.857,2.857,2.857,2.857,2.857,2.857,2.857,2.857,2.85,2.842,2.834,2.834,2.827,2.819,2.812,2.804,2.797,2.797,2.797,2.797,2.797,2.797,2.797,2.797,2.804,2.804,2.804,2.804,2.804,2.804,2.804,2.797,2.797,2.79,2.782,2.782,2.768,2.76,2.753,2.746,2.739
3.263,3.283,3.283,3.294,3.304,3.314,3.314,3.335,3.346,3.356,3.367,3.378,3.389,3.4,3.41,3.433,3.444,3.455,3.466,3.478,3.489,3.512,3.524,3.548,3.56,3.584,3.608,3.621,3.633,3.658,3.671,3.684,3.697,3.697,3.71,3.71,3.697,3.697,3.684,3.684,3.671,3.671,3.671,3.671,3.671,3.671,3.671,3.671,3.671,3.671,3.671,3.671,3.671,3.684,3.684,3.684,3.684,3.684,3.671,3.671,3.671,3.658,3.658,3.646,3.646,3.633,3.633,3.633,3.633,3.633,3.633,3.633,3.633,3.633,3.633,3.646,3.658,3.658,3.671,3.671,3.684,3.684,3.684,3.697,3.697,3.697,3.697,3.697,3.697,3.697,3.697,3.71,3.71,3.71,3.71,3.71,3.71,3.697,3.697,3.697,3.684,3.684,3.671,3.671,3.658,3.658,3.646,3.646,3.633,3.633,3.633,3.633,3.633,3.633,3.633,3.633,3.633,3.633,3.633,3.633,3.633,3.633,3.621,3.621,3.621,3.608,3.608,3.596,3.596,3.596,3.596,3.596,3.596,3.596,3.596,3.608,3.608,3.608,3.621,3.621,3.621,3.633,3.646,3.646,3.646,3.658,3.658,3.658,3.671,3.671,3.671,3.671,3.671,3.671,3.671,3.671,3.671,3.671,3.671,3.671,3.671,3.684,3.684,3.697,3.697,3.71,3.723,3.723,3.736,3.749,3.776,3.789,3.831,3.873,3.93,4.02,4.098,4.195,4.298,4.387,4.461,4.538,4.577,4.597,4.617,4.637,4.637,4.658,4.658,4.658,4.658,4.658,4.678,4.678,4.699,4.699,4.699,4.699,4.72,4.72,4.72,4.72,4.72,4.72,4.72,4.72,4.72,4.72,4.72,4.72,4.72,4.72,4.72,4.699,4.678,4.637,4.617,4.577,4.538,4.499,4.461,4.424,4.387,4.369,4.333,4.298,4.28,4.263,4.246,4.229,4.212,4.212,4.195,4.195,4.195,4.179,4.179,4.195,4.195,4.195,4.212,4.229,4.246,4.263,4.298,4.315,4.351,4.387,4.424,4.461,4.499,4.538,4.557,4.597,4.617,4.658,4.658,4.678,4.699,4.699,4.72,4.72,4.72,4.72,4.741,4.741,4.762,4.762,4.762,4.762,4.784,4.784,4.806,4.806,4.806,4.806,4.828,4.828,4.828,4.828,4.828,4.828,4.828,4.806,4.806,4.806,4.784,4.762,4.741,4.72,4.678,4.637,4.617,4.597,4.557,4.538,4.518,4.518,4.518,4.518,4.518,4.538,4.557,4.577,4.617,4.637,4.678,4.699,4.72,4.762,4.784,4.806,4.806,4.806,4.806,4.806,4.806,4.784,4.784,4.762,4.762,4.762,4.741,4.741,4.72,4.72,4.72,4.72,4.72,4.699,4.699,4.699,4.699,4.699,4.699,4.699,4.678,4.678,4.678,4.678,4.678,4.678,4.678,4.678,4.678,4.699,4.72,4.72,4.72,4.741,4.741,4.762,4.762,4.762,4.762,4.762,4.741,4.741,4.741,4.741,4.72,4.72,4.699,4.699,4.678,4.658,4.637,4.617,4.597,4.577,4.557,4.538,4.518,4.48,4.461,4.442,4.405,4.387,4.351,4.315,4.28,4.229,4.195,4.146,4.098,4.051,4.02,3.975,3.945,3.916,3.887,3.873,3.845,3.831,3.817,3.789,3.776,3.762,3.736,3.723,3.697,3.671,3.646,3.621,3.596,3.572,3.536,3.512,3.501,3.478,3.466,3.444,3.422,3.4,3.389,3.367,3.335,3.314,3.294,3.273,3.243,3.223,3.194,3.175,3.147,3.128,3.11,3.082,3.065,3.047,3.021,3.004,2.987,2.961,2.937,2.921,2.905,2.889,2.873,2.857,2.85,2.834,2.834,2.834,2.827,2.827,2.827,2.827,2.827,2.827,2.827,2.819,2.819,2.819,2.819,2.812,2.812,2.812,2.812,2.812,2.812,2.812,2.812,2.812,2.812,2.812,2.804,2.812,2.812,2.812,2.812,2.812,2.812,2.812,2.812,2.819,2.819,2.819,2.827,2.827,2.827,2.827,2.834,2.834,2.842,2.842,2.85,2.85,2.857,2.857,2.857,2.865,2.865,2.865,2.865,2.857,2.857,2.85,2.842,2.842,2.834,2.827,2.812,2.812,2.804,2.797,2.797,2.797,2.797,2.797,2.804,2.804,2.804,2.812,2.819,2.819,2.819,2.819,2.812,2.812,2.804,2.797,2.797,2.79,2.782,2.768,2.768,2.753,2.746,2.739
3.253,3.273,3.283,3.294,3.304,3.314,3.325,3.335,3.346,3.356,3.367,3.389,3.4,3.41,3.422,3.433,3.444,3.455,3.478,3.489,3.501,3.512,3.536,3.548,3.572,3.584,3.608,3.621,3.646,3.658,3.671,3.684,3.697,3.697,3.71,3.697,3.697,3.697,3.684,3.671,3.671,3.671,3.671,3.658,3.658,3.658,3.658,3.658,3.658,3.658,3.671,3.671,3.671,3.671,3.684,3.684,3.684,3.671,3.671,3.671,3.671,3.671,3.658,3.646,3.646,3.633,3.633,3.633,3.633,3.633,3.633,3.633,3.633,3.633,3.646,3.646,3.658,3.658,3.671,3.671,3.684,3.684,3.684,3.697,3.697,3.697,3.697,3.697,3.697,3.71,3.71,3.71,3.723,3.723,3.723,3.723,3.71,3.71,3.697,3.697,3.684,3.684,3.671,3.671,3.658,3.658,3.646,3.646,3.633,3.633,3.633,3.633,3.633,3.633,3.633,3.633,3.633,3.646,3.646,3.633,3.633,3.633,3.633,3.621,3.621,3.608,3.608,3.596,3.596,3.596,3.596,3.596,3.596,3.596,3.596,3.596,3.596,3.596,3.608,3.608,3.621,3.621,3.633,3.633,3.646,3.646,3.646,3.658,3.658,3.658,3.658,3.658,3.658,3.658,3.658,3.658,3.658,3.658,3.671,3.671,3.671,3.684,3.684,3.697,3.71,3.71,3.723,3.736,3.749,3.776,3.789,3.817,3.845,3.901,3.975,4.066,4.13,4.229,4.333,4.424,4.499,4.557,4.597,4.637,4.637,4.658,4.658,4.678,4.678,4.678,4.678,4.678,4.699,4.699,4.699,4.72,4.72,4.72,4.72,4.72,4.72,4.72,4.72,4.72,4.72,4.741,4.741,4.741,4.741,4.741,4.741,4.741,4.741,4.72,4.699,4.658,4.637,4.597,4.557,4.518,4.48,4.442,4.405,4.387,4.351,4.315,4.298,4.28,4.263,4.263,4.246,4.229,4.229,4.229,4.212,4.212,4.212,4.212,4.212,4.229,4.229,4.246,4.263,4.28,4.315,4.333,4.369,4.405,4.442,4.48,4.518,4.557,4.597,4.617,4.658,4.678,4.678,4.72,4.72,4.72,4.741,4.741,4.741,4.762,4.762,4.762,4.762,4.784,4.784,4.806,4.806,4.806,4.828,4.828,4.85,4.85,4.85,4.85,4.85,4.85,4.85,4.85,4.85,4.85,4.828,4.828,4.806,4.784,4.762,4.72,4.699,4.658,4.617,4.597,4.577,4.557,4.538,4.538,4.538,4.538,4.538,4.557,4.557,4.577,4.617,4.637,4.678,4.72,4.741,4.762,4.806,4.806,4.828,4.828,4.828,4.828,4.828,4.806,4.806,4.784,4.762,4.762,4.762,4.741,4.741,4.741,4.72,4.72,4.72,4.72,4.72,4.72,4.72,4.699,4.699,4.699,4.699,4.699,4.699,4.699,4.699,4.699,4.699,4.699,4.699,4.699,4.72,4.72,4.72,4.741,4.741,4.741,4.762,4.762,4.762,4.762,4.741,4.741,4.741,4.741,4.741,4.72,4.72,4.699,4.678,4.658,4.637,4.617,4.597,4.577,4.557,4.538,4.518,4.48,4.461,4.442,4.405,4.387,4.351,4.315,4.28,4.246,4.195,4.162,4.114,4.066,4.035,3.99,3.96,3.93,3.916,3.887,3.873,3.859,3.831,3.817,3.803,3.776,3.762,3.749,3.723,3.697,3.671,3.633,3.608,3.584,3.56,3.536,3.512,3.489,3.478,3.455,3.444,3.422,3.4,3.378,3.356,3.335,3.304,3.273,3.253,3.223,3.204,3.184,3.156,3.128,3.11,3.091,3.073,3.047,3.029,3.004,2.987,2.961,2.937,2.921,2.905,2.889,2.873,2.857,2.85,2.842,2.842,2.834,2.834,2.834,2.827,2.827,2.827,2.827,2.827,2.819,2.819,2.819,2.819,2.819,2.812,2.812,2.812,2.812,2.819,2.819,2.812,2.819,2.819,2.819,2.819,2.819,2.819,2.819,2.827,2.827,2.827,2.827,2.827,2.827,2.827,2.827,2.834,2.834,2.834,2.834,2.834,2.842,2.842,2.85,2.85,2.857,2.857,2.857,2.865,2.865,2.865,2.865,2.865,2.857,2.857,2.85,2.842,2.834,2.827,2.819,2.819,2.804,2.804,2.797,2.797,2.804,2.804,2.804,2.812,2.812,2.819,2.819,2.819,2.827,2.819,2.819,2.819,2.819,2.812,2.804,2.797,2.79,2.782,2.775,2.768,2.76,2.753,2.746
3.243,3.263,3.273,3.283,3.304,3.314,3.325,3.335,3.356,3.367,3.389,3.389,3.41,3.422,3.433,3.444,3.466,3.478,3.489,3.501,3.512,3.524,3.536,3.56,3.572,3.596,3.608,3.633,3.646,3.658,3.671,3.684,3.697,3.697,3.697,3.697,3.697,3.697,3.684,3.671,3.671,3.671,3.658,3.658,3.646,3.646,3.646,3.658,3.658,3.658,3.658,3.671,3.671,3.671,3.671,3.671,3.671,3.671,3.671,3.671,3.671,3.671,3.658,3.658,3.646,3.646,3.646,3.633,3.633,3.633,3.633,3.633,3.646,3.646,3.646,3.658,3.658,3.658,3.671,3.671,3.671,3.684,3.684,3.697,3.697,3.697,3.697,3.697,3.71,3.71,3.723,3.723,3.723,3.723,3.723,3.723,3.723,3.71,3.697,3.697,3.684,3.671,3.671,3.671,3.658,3.646,3.646,3.646,3.633,3.633,3.633,3.633,3.646,3.646,3.646,3.646,3.646,3.646,3.646,3.646,3.646,3.633,3.633,3.633,3.621,3.608,3.608,3.596,3.596,3.596,3.596,3.596,3.596,3.596,3.596,3.596,3.596,3.596,3.596,3.608,3.608,3.621,3.621,3.621,3.633,3.646,3.646,3.646,3.646,3.646,3.646,3.646,3.646,3.658,3.658,3.658,3.658,3.658,3.658,3.671,3.671,3.684,3.697,3.697,3.71,3.723,3.736,3.749,3.762,3.776,3.803,3.831,3.873,3.916,4.005,4.082,4.179,4.263,4.351,4.442,4.518,4.577,4.617,4.637,4.658,4.678,4.678,4.699,4.699,4.699,4.699,4.699,4.72,4.72,4.72,4.72,4.741,4.741,4.741,4.741,4.741,4.72,4.72,4.741,4.741,4.741,4.741,4.741,4.741,4.762,4.762,4.741,4.741,4.741,4.699,4.678,4.658,4.617,4.577,4.538,4.499,4.461,4.442,4.405,4.369,4.351,4.333,4.315,4.298,4.28,4.263,4.263,4.263,4.263,4.246,4.246,4.246,4.246,4.246,4.246,4.263,4.28,4.298,4.315,4.333,4.351,4.387,4.424,4.461,4.499,4.538,4.577,4.617,4.658,4.678,4.699,4.72,4.741,4.741,4.741,4.762,4.762,4.762,4.762,4.762,4.784,4.806,4.806,4.806,4.806,4.828,4.828,4.85,4.85,4.85,4.85,4.872,4.872,4.872,4.872,4.872,4.872,4.85,4.85,4.85,4.828,4.806,4.784,4.762,4.72,4.699,4.658,4.617,4.597,4.577,4.557,4.557,4.538,4.538,4.538,4.557,4.557,4.577,4.597,4.617,4.658,4.678,4.72,4.741,4.784,4.806,4.806,4.828,4.828,4.828,4.828,4.828,4.828,4.806,4.806,4.784,4.762,4.762,4.762,4.741,4.741,4.72,4.72,4.72,4.72,4.72,4.72,4.72,4.72,4.72,4.72,4.72,4.72,4.72,4.72,4.72,4.72,4.72,4.699,4.699,4.72,4.72,4.72,4.72,4.72,4.741,4.741,4.741,4.741,4.741,4.741,4.741,4.741,4.741,4.741,4.741,4.72,4.72,4.699,4.699,4.678,4.658,4.617,4.597,4.577,4.557,4.538,4.518,4.48,4.461,4.442,4.405,4.387,4.351,4.315,4.28,4.246,4.212,4.179,4.13,4.098,4.051,4.02,3.99,3.96,3.93,3.901,3.887,3.873,3.845,3.831,3.817,3.803,3.789,3.762,3.736,3.71,3.684,3.658,3.621,3.596,3.572,3.548,3.524,3.501,3.489,3.466,3.455,3.433,3.41,3.389,3.367,3.335,3.314,3.283,3.263,3.233,3.204,3.184,3.165,3.137,3.119,3.091,3.073,3.056,3.029,3.012,2.995,2.97,2.945,2.921,2.905,2.889,2.873,2.857,2.85,2.842,2.842,2.834,2.834,2.834,2.827,2.827,2.834,2.827,2.827,2.827,2.819,2.819,2.819,2.819,2.812,2.819,2.819,2.819,2.819,2.819,2.819,2.827,2.827,2.827,2.834,2.834,2.834,2.834,2.834,2.842,2.834,2.834,2.834,2.834,2.834,2.834,2.842,2.834,2.834,2.842,2.842,2.842,2.85,2.85,2.857,2.857,2.865,2.865,2.865,2.865,2.865,2.865,2.865,2.865,2.857,2.85,2.842,2.834,2.827,2.819,2.812,2.804,2.804,2.804,2.804,2.804,2.804,2.812,2.819,2.819,2.827,2.827,2.834,2.834,2.827,2.827,2.819,2.819,2.812,2.804,2.797,2.79,2.782,2.775,2.768,2.768,2.753,2.753
3.233,3.243,3.263,3.283,3.294,3.314,3.325,3.346,3.367,3.378,3.4,3.41,3.422,3.433,3.444,3.455,3.466,3.478,3.489,3.501,3.512,3.524,3.548,3.56,3.584,3.596,3.608,3.633,3.646,3.658,3.671,3.684,3.697,3.697,3.697,3.697,3.697,3.684,3.671,3.671,3.671,3.658,3.658,3.646,3.646,3.646,3.646,3.646,3.646,3.658,3.658,3.658,3.671,3.671,3.671,3.671,3.671,3.671,3.671,3.671,3.671,3.671,3.658,3.658,3.658,3.646,3.646,3.646,3.646,3.646,3.646,3.646,3.646,3.658,3.658,3.658,3.658,3.658,3.671,3.671,3.671,3.671,3.684,3.684,3.697,3.697,3.697,3.697,3.71,3.71,3.723,3.723,3.723,3.723,3.723,3.723,3.723,3.71,3.697,3.697,3.684,3.671,3.671,3.658,3.658,3.646,3.646,3.646,3.646,3.646,3.646,3.646,3.646,3.646,3.646,3.658,3.658,3.658,3.658,3.658,3.646,3.646,3.633,3.633,3.621,3.621,3.608,3.608,3.596,3.596,3.596,3.596,3.596,3.596,3.596,3.596,3.596,3.596,3.596,3.596,3.608,3.608,3.621,3.621,3.621,3.633,3.633,3.646,3.646,3.646,3.646,3.646,3.646,3.646,3.646,3.646,3.658,3.658,3.658,3.658,3.671,3.684,3.697,3.697,3.71,3.723,3.736,3.749,3.776,3.789,3.803,3.831,3.887,3.945,4.02,4.114,4.179,4.28,4.369,4.461,4.538,4.597,4.617,4.658,4.678,4.699,4.699,4.72,4.72,4.72,4.72,4.72,4.741,4.741,4.741,4.741,4.741,4.741,4.741,4.741,4.741,4.741,4.72,4.741,4.741,4.741,4.741,4.741,4.741,4.762,4.762,4.762,4.741,4.741,4.72,4.699,4.678,4.637,4.597,4.557,4.518,4.499,4.461,4.424,4.387,4.369,4.351,4.333,4.333,4.315,4.298,4.298,4.298,4.298,4.28,4.28,4.28,4.28,4.28,4.298,4.298,4.298,4.315,4.333,4.351,4.387,4.405,4.442,4.48,4.518,4.557,4.597,4.637,4.658,4.699,4.72,4.741,4.762,4.762,4.784,4.784,4.784,4.784,4.784,4.806,4.806,4.806,4.806,4.828,4.828,4.85,4.85,4.85,4.872,4.872,4.872,4.895,4.895,4.895,4.895,4.895,4.895,4.872,4.872,4.85,4.828,4.828,4.806,4.762,4.741,4.699,4.658,4.637,4.597,4.577,4.557,4.557,4.538,4.538,4.557,4.557,4.557,4.577,4.617,4.637,4.658,4.678,4.72,4.741,4.784,4.806,4.828,4.85,4.85,4.85,4.85,4.828,4.828,4.806,4.806,4.784,4.784,4.762,4.762,4.762,4.741,4.72,4.72,4.72,4.72,4.72,4.72,4.72,4.72,4.72,4.72,4.72,4.72,4.72,4.72,4.72,4.72,4.72,4.72,4.699,4.699,4.72,4.72,4.72,4.72,4.72,4.72,4.72,4.741,4.741,4.741,4.741,4.741,4.741,4.741,4.741,4.741,4.72,4.699,4.699,4.678,4.658,4.637,4.617,4.577,4.557,4.538,4.518,4.48,4.461,4.442,4.405,4.387,4.351,4.333,4.298,4.263,4.229,4.195,4.146,4.114,4.082,4.051,4.02,3.99,3.96,3.93,3.916,3.901,3.873,3.859,3.845,3.831,3.817,3.789,3.762,3.736,3.71,3.684,3.646,3.621,3.584,3.56,3.536,3.524,3.501,3.489,3.466,3.444,3.422,3.4,3.378,3.346,3.325,3.294,3.273,3.243,3.214,3.184,3.165,3.147,3.119,3.1,3.073,3.056,3.038,3.021,2.995,2.97,2.945,2.921,2.905,2.889,2.873,2.857,2.85,2.842,2.834,2.834,2.834,2.834,2.827,2.834,2.834,2.827,2.827,2.827,2.819,2.819,2.819,2.819,2.819,2.819,2.819,2.819,2.819,2.827,2.827,2.827,2.834,2.834,2.842,2.842,2.842,2.85,2.85,2.85,2.85,2.85,2.85,2.85,2.842,2.85,2.85,2.842,2.842,2.842,2.85,2.85,2.85,2.85,2.857,2.857,2.865,2.865,2.865,2.873,2.865,2.865,2.865,2.857,2.85,2.842,2.842,2.834,2.827,2.819,2.812,2.812,2.812,2.804,2.804,2.812,2.812,2.819,2.827,2.827,2.827,2.834,2.834,2.834,2.834,2.834,2.827,2.819,2.819,2.812,2.804,2.797,2.79,2.782,2.775,2.768,2.768,2.76
3.223,3.233,3.253,3.273,3.294,3.314,3.335,3.356,3.367,3.389,3.41,3.422,3.433,3.444,3.455,3.466,3.478,3.489,3.501,3.512,3.524,3.536,3.548,3.572,3.584,3.608,3.621,3.633,3.658,3.671,3.684,3.697,3.697,3.697,3.697,3.697,3.697,3.684,3.671,3.671,3.671,3.658,3.658,3.646,3.646,3.646,3.646,3.646,3.646,3.646,3.646,3.646,3.658,3.658,3.658,3.671,3.671,3.671,3.671,3.671,3.671,3.671,3.658,3.658,3.658,3.658,3.658,3.658,3.658,3.658,3.658,3.658,3.658,3.658,3.658,3.658,3.658,3.658,3.671,3.671,3.671,3.671,3.671,3.684,3.684,3.697,3.697,3.697,3.71,3.723,3.723,3.723,3.736,3.736,3.736,3.723,3.723,3.723,3.71,3.697,3.684,3.671,3.671,3.658,3.658,3.646,3.646,3.646,3.646,3.646,3.646,3.646,3.646,3.658,3.658,3.658,3.658,3.658,3.658,3.658,3.658,3.646,3.646,3.633,3.633,3.621,3.608,3.608,3.608,3.596,3.596,3.596,3.596,3.596,3.596,3.596,3.596,3.596,3.596,3.596,3.608,3.608,3.621,3.621,3.621,3.621,3.633,3.633,3.633,3.633,3.633,3.633,3.633,3.646,3.646,3.646,3.646,3.658,3.658,3.658,3.671,3.671,3.684,3.697,3.71,3.723,3.736,3.749,3.776,3.789,3.817,3.845,3.901,3.975,4.035,4.114,4.212,4.28,4.369,4.461,4.538,4.597,4.637,4.658,4.678,4.699,4.72,4.72,4.741,4.741,4.741,4.741,4.741,4.741,4.741,4.741,4.741,4.741,4.741,4.741,4.72,4.72,4.72,4.72,4.72,4.72,4.741,4.741,4.741,4.741,4.741,4.762,4.741,4.741,4.72,4.699,4.678,4.637,4.617,4.577,4.538,4.518,4.48,4.442,4.424,4.405,4.387,4.369,4.351,4.351,4.333,4.333,4.333,4.315,4.315,4.315,4.315,4.315,4.315,4.333,4.333,4.351,4.351,4.369,4.387,4.424,4.442,4.48,4.518,4.538,4.577,4.617,4.658,4.678,4.72,4.741,4.762,4.784,4.784,4.806,4.806,4.806,4.806,4.806,4.806,4.828,4.828,4.828,4.85,4.85,4.85,4.85,4.872,4.872,4.872,4.895,4.895,4.895,4.895,4.895,4.895,4.895,4.895,4.872,4.85,4.85,4.828,4.806,4.784,4.741,4.72,4.678,4.658,4.617,4.597,4.577,4.557,4.557,4.557,4.557,4.577,4.577,4.597,4.617,4.637,4.678,4.699,4.741,4.762,4.784,4.806,4.85,4.85,4.85,4.85,4.85,4.85,4.828,4.828,4.806,4.806,4.784,4.762,4.762,4.762,4.741,4.72,4.72,4.72,4.72,4.72,4.72,4.72,4.72,4.72,4.72,4.741,4.741,4.741,4.72,4.72,4.72,4.72,4.72,4.699,4.699,4.72,4.72,4.72,4.72,4.72,4.72,4.72,4.72,4.72,4.72,4.72,4.741,4.741,4.741,4.741,4.741,4.72,4.72,4.699,4.678,4.658,4.637,4.617,4.597,4.557,4.538,4.518,4.499,4.461,4.442,4.424,4.387,4.369,4.333,4.315,4.28,4.246,4.212,4.179,4.146,4.114,4.082,4.051,4.02,3.99,3.96,3.93,3.916,3.901,3.887,3.873,3.845,3.831,3.817,3.789,3.762,3.736,3.697,3.671,3.633,3.608,3.584,3.56,3.536,3.512,3.501,3.478,3.455,3.433,3.41,3.389,3.356,3.335,3.304,3.273,3.243,3.214,3.194,3.165,3.147,3.119,3.1,3.082,3.056,3.038,3.021,2.995,2.97,2.945,2.921,2.905,2.889,2.873,2.857,2.85,2.842,2.834,2.834,2.834,2.834,2.834,2.834,2.834,2.827,2.827,2.827,2.819,2.819,2.819,2.819,2.819,2.819,2.819,2.819,2.827,2.827,2.827,2.834,2.842,2.842,2.85,2.85,2.85,2.857,2.857,2.857,2.857,2.857,2.857,2.857,2.857,2.85,2.85,2.85,2.85,2.85,2.85,2.85,2.85,2.857,2.857,2.857,2.865,2.865,2.865,2.865,2.865,2.865,2.865,2.857,2.85,2.842,2.842,2.834,2.827,2.827,2.819,2.812,2.812,2.812,2.812,2.819,2.819,2.827,2.827,2.834,2.834,2.842,2.842,2.842,2.842,2.834,2.827,2.827,2.819,2.819,2.804,2.804,2.797,2.79,2.782,2.782,2.782,2.775
3.214,3.233,3.253,3.273,3.304,3.325,3.346,3.356,3.378,3.4,3.41,3.433,3.444,3.455,3.455,3.478,3.478,3.489,3.501,3.512,3.524,3.536,3.56,3.572,3.596,3.608,3.621,3.646,3.658,3.671,3.684,3.697,3.697,3.697,3.697,3.697,3.697,3.697,3.671,3.671,3.671,3.658,3.646,3.646,3.646,3.646,3.646,3.633,3.633,3.633,3.633,3.646,3.646,3.646,3.658,3.658,3.658,3.658,3.658,3.658,3.658,3.658,3.658,3.671,3.671,3.671,3.671,3.671,3.671,3.671,3.671,3.671,3.671,3.671,3.671,3.671,3.658,3.658,3.658,3.658,3.658,3.671,3.671,3.671,3.671,3.684,3.697,3.697,3.697,3.71,3.723,3.723,3.736,3.736,3.736,3.736,3.723,3.723,3.71,3.697,3.684,3.671,3.671,3.658,3.658,3.646,3.646,3.646,3.646,3.646,3.646,3.646,3.646,3.658,3.658,3.658,3.671,3.671,3.671,3.658,3.658,3.646,3.646,3.633,3.633,3.621,3.621,3.608,3.608,3.608,3.596,3.596,3.596,3.596,3.596,3.596,3.596,3.596,3.596,3.596,3.608,3.608,3.621,3.621,3.621,3.621,3.633,3.633,3.633,3.633,3.633,3.633,3.633,3.633,3.646,3.646,3.646,3.658,3.658,3.658,3.671,3.671,3.684,3.697,3.71,3.723,3.736,3.749,3.776,3.789,3.817,3.845,3.901,3.975,4.051,4.13,4.212,4.298,4.387,4.48,4.557,4.597,4.637,4.658,4.678,4.699,4.72,4.741,4.741,4.741,4.741,4.741,4.762,4.762,4.741,4.741,4.741,4.741,4.741,4.72,4.72,4.72,4.72,4.72,4.72,4.72,4.72,4.72,4.741,4.741,4.741,4.741,4.741,4.741,4.72,4.699,4.678,4.658,4.617,4.597,4.557,4.518,4.499,4.461,4.442,4.424,4.405,4.405,4.387,4.369,4.369,4.351,4.351,4.351,4.351,4.351,4.351,4.351,4.351,4.369,4.387,4.387,4.405,4.424,4.442,4.461,4.48,4.518,4.538,4.577,4.597,4.637,4.678,4.699,4.72,4.762,4.762,4.784,4.806,4.806,4.806,4.806,4.828,4.828,4.828,4.828,4.828,4.85,4.85,4.85,4.85,4.872,4.872,4.872,4.895,4.895,4.895,4.895,4.895,4.895,4.895,4.895,4.895,4.872,4.872,4.85,4.828,4.806,4.784,4.741,4.72,4.678,4.658,4.637,4.597,4.577,4.577,4.577,4.577,4.577,4.577,4.597,4.597,4.637,4.658,4.699,4.72,4.741,4.784,4.806,4.85,4.85,4.872,4.872,4.872,4.872,4.85,4.85,4.828,4.806,4.806,4.784,4.762,4.762,4.741,4.72,4.72,4.72,4.699,4.699,4.699,4.72,4.72,4.72,4.72,4.741,4.741,4.741,4.741,4.741,4.741,4.741,4.72,4.72,4.72,4.72,4.72,4.72,4.72,4.72,4.72,4.72,4.72,4.72,4.72,4.72,4.72,4.741,4.741,4.741,4.741,4.741,4.741,4.72,4.699,4.678,4.678,4.637,4.617,4.597,4.577,4.538,4.518,4.499,4.461,4.442,4.424,4.405,4.387,4.351,4.333,4.298,4.263,4.229,4.212,4.179,4.146,4.114,4.082,4.051,4.02,3.99,3.96,3.945,3.916,3.901,3.887,3.873,3.845,3.831,3.817,3.789,3.749,3.723,3.684,3.658,3.621,3.596,3.572,3.548,3.524,3.512,3.489,3.466,3.444,3.422,3.389,3.367,3.335,3.304,3.273,3.243,3.214,3.194,3.165,3.147,3.119,3.1,3.082,3.056,3.038,3.021,2.995,2.97,2.945,2.921,2.905,2.889,2.873,2.857,2.85,2.842,2.834,2.834,2.834,2.834,2.834,2.834,2.834,2.827,2.827,2.827,2.827,2.819,2.819,2.819,2.819,2.819,2.819,2.819,2.827,2.827,2.834,2.834,2.842,2.842,2.85,2.85,2.857,2.857,2.857,2.857,2.857,2.857,2.857,2.857,2.857,2.857,2.857,2.857,2.85,2.85,2.85,2.85,2.857,2.857,2.857,2.857,2.865,2.865,2.865,2.865,2.857,2.857,2.857,2.85,2.85,2.842,2.834,2.834,2.827,2.819,2.819,2.812,2.812,2.812,2.819,2.827,2.827,2.827,2.834,2.834,2.842,2.842,2.842,2.842,2.842,2.834,2.827,2.827,2.819,2.819,2.812,2.804,2.797,2.797,2.797,2.79,2.79,2.782
3.214,3.233,3.253,3.283,3.304,3.325,3.346,3.378,3.4,3.41,3.433,3.444,3.455,3.466,3.466,3.478,3.489,3.501,3.512,3.524,3.536,3.548,3.56,3.584,3.596,3.621,3.633,3.658,3.671,3.684,3.697,3.71,3.71,3.71,3.71,3.697,3.697,3.684,3.671,3.671,3.658,3.658,3.646,3.646,3.646,3.633,3.633,3.633,3.633,3.633,3.633,3.633,3.633,3.646,3.646,3.646,3.646,3.646,3.646,3.658,3.658,3.658,3.671,3.671,3.671,3.671,3.671,3.671,3.671,3.671,3.671,3.671,3.671,3.671,3.671,3.671,3.658,3.658,3.658,3.646,3.646,3.646,3.658,3.658,3.671,3.671,3.684,3.697,3.697,3.71,3.723,3.723,3.736,3.749,3.749,3.736,3.736,3.723,3.71,3.697,3.684,3.671,3.671,3.658,3.658,3.646,3.646,3.646,3.646,3.646,3.646,3.646,3.646,3.658,3.658,3.658,3.671,3.658,3.658,3.658,3.658,3.646,3.646,3.646,3.633,3.633,3.621,3.621,3.621,3.608,3.608,3.608,3.608,3.596,3.596,3.596,3.596,3.596,3.608,3.608,3.608,3.621,3.621,3.621,3.621,3.633,3.633,3.633,3.633,3.633,3.633,3.633,3.633,3.646,3.646,3.646,3.646,3.658,3.658,3.658,3.658,3.671,3.684,3.697,3.697,3.71,3.736,3.749,3.762,3.776,3.803,3.845,3.916,3.975,4.051,4.146,4.212,4.298,4.387,4.48,4.557,4.617,4.637,4.658,4.678,4.699,4.72,4.741,4.762,4.762,4.762,4.762,4.762,4.741,4.741,4.741,4.72,4.72,4.72,4.72,4.72,4.699,4.699,4.699,4.699,4.699,4.72,4.72,4.72,4.741,4.741,4.741,4.741,4.741,4.741,4.72,4.699,4.678,4.637,4.617,4.577,4.557,4.518,4.499,4.48,4.461,4.442,4.424,4.405,4.405,4.387,4.387,4.387,4.387,4.387,4.387,4.387,4.405,4.405,4.424,4.424,4.442,4.442,4.461,4.48,4.499,4.518,4.538,4.577,4.597,4.637,4.658,4.699,4.72,4.741,4.762,4.784,4.806,4.806,4.828,4.828,4.828,4.828,4.828,4.828,4.828,4.85,4.85,4.85,4.85,4.85,4.872,4.872,4.872,4.895,4.895,4.895,4.895,4.895,4.895,4.895,4.895,4.895,4.895,4.872,4.85,4.85,4.828,4.806,4.762,4.741,4.699,4.658,4.637,4.617,4.597,4.597,4.577,4.577,4.577,4.597,4.597,4.617,4.637,4.658,4.699,4.741,4.762,4.784,4.828,4.85,4.872,4.895,4.895,4.872,4.872,4.872,4.85,4.828,4.806,4.806,4.784,4.762,4.762,4.741,4.72,4.72,4.699,4.699,4.699,4.699,4.699,4.72,4.72,4.72,4.741,4.762,4.762,4.762,4.762,4.762,4.762,4.741,4.741,4.72,4.72,4.72,4.72,4.72,4.72,4.72,4.72,4.72,4.72,4.72,4.72,4.72,4.741,4.741,4.762,4.762,4.762,4.741,4.741,4.72,4.699,4.678,4.658,4.637,4.597,4.577,4.557,4.518,4.499,4.48,4.461,4.424,4.405,4.387,4.369,4.333,4.315,4.28,4.263,4.229,4.195,4.162,4.146,4.114,4.082,4.051,4.02,3.99,3.96,3.945,3.916,3.901,3.887,3.859,3.845,3.817,3.789,3.762,3.736,3.697,3.671,3.633,3.608,3.572,3.548,3.536,3.512,3.489,3.478,3.444,3.422,3.389,3.367,3.335,3.304,3.273,3.243,3.214,3.184,3.165,3.147,3.119,3.1,3.082,3.065,3.038,3.021,2.995,2.97,2.945,2.921,2.897,2.881,2.865,2.857,2.842,2.842,2.834,2.834,2.834,2.834,2.834,2.834,2.834,2.834,2.827,2.827,2.827,2.827,2.819,2.819,2.819,2.819,2.819,2.819,2.827,2.827,2.834,2.834,2.842,2.85,2.85,2.85,2.857,2.857,2.857,2.857,2.857,2.857,2.857,2.865,2.857,2.857,2.857,2.857,2.857,2.857,2.857,2.857,2.857,2.857,2.857,2.857,2.865,2.857,2.857,2.857,2.857,2.857,2.85,2.85,2.842,2.834,2.834,2.827,2.827,2.819,2.819,2.819,2.819,2.819,2.827,2.827,2.834,2.834,2.842,2.842,2.842,2.842,2.842,2.842,2.842,2.834,2.834,2.827,2.819,2.819,2.812,2.812,2.804,2.797,2.797,2.797,2.797,2.797
3.214,3.233,3.263,3.294,3.314,3.346,3.367,3.389,3.41,3.422,3.433,3.444,3.455,3.466,3.478,3.478,3.489,3.501,3.512,3.524,3.536,3.548,3.56,3.584,3.608,3.633,3.646,3.658,3.684,3.697,3.697,3.71,3.71,3.71,3.71,3.697,3.697,3.684,3.671,3.671,3.658,3.646,3.646,3.646,3.646,3.633,3.633,3.633,3.633,3.633,3.633,3.633,3.633,3.633,3.633,3.646,3.646,3.646,3.646,3.658,3.658,3.671,3.671,3.671,3.671,3.671,3.684,3.684,3.684,3.684,3.684,3.671,3.671,3.671,3.671,3.671,3.658,3.646,3.646,3.646,3.646,3.646,3.646,3.646,3.658,3.671,3.671,3.684,3.697,3.697,3.723,3.723,3.736,3.749,3.749,3.736,3.736,3.723,3.71,3.697,3.684,3.671,3.671,3.658,3.658,3.646,3.646,3.646,3.646,3.646,3.646,3.646,3.646,3.658,3.658,3.658,3.658,3.658,3.658,3.658,3.658,3.646,3.646,3.646,3.633,3.633,3.633,3.621,3.621,3.621,3.621,3.621,3.621,3.621,3.621,3.621,3.621,3.621,3.621,3.621,3.621,3.621,3.621,3.633,3.633,3.633,3.633,3.646,3.646,3.646,3.646,3.646,3.646,3.646,3.646,3.646,3.658,3.658,3.658,3.658,3.658,3.671,3.684,3.684,3.697,3.71,3.723,3.736,3.749,3.762,3.789,3.831,3.901,3.975,4.051,4.13,4.229,4.315,4.405,4.499,4.557,4.617,4.637,4.658,4.699,4.72,4.741,4.741,4.762,4.762,4.762,4.762,4.741,4.741,4.72,4.72,4.72,4.72,4.699,4.699,4.678,4.678,4.678,4.678,4.678,4.699,4.699,4.72,4.72,4.72,4.741,4.741,4.741,4.741,4.741,4.72,4.699,4.678,4.658,4.617,4.597,4.577,4.557,4.518,4.499,4.48,4.48,4.461,4.442,4.424,4.424,4.424,4.424,4.424,4.424,4.424,4.442,4.442,4.461,4.48,4.48,4.499,4.518,4.518,4.538,4.557,4.577,4.597,4.617,4.637,4.658,4.678,4.72,4.741,4.762,4.784,4.784,4.806,4.806,4.828,4.828,4.828,4.828,4.828,4.828,4.828,4.85,4.85,4.85,4.85,4.872,4.872,4.872,4.872,4.872,4.895,4.895,4.895,4.895,4.895,4.895,4.895,4.895,4.872,4.872,4.85,4.85,4.828,4.806,4.784,4.741,4.699,4.678,4.658,4.637,4.617,4.597,4.597,4.597,4.597,4.597,4.617,4.617,4.658,4.678,4.699,4.741,4.784,4.806,4.85,4.872,4.895,4.895,4.895,4.895,4.895,4.872,4.872,4.85,4.828,4.806,4.784,4.762,4.762,4.741,4.72,4.72,4.699,4.699,4.699,4.699,4.699,4.72,4.72,4.741,4.762,4.762,4.762,4.762,4.762,4.762,4.762,4.762,4.762,4.762,4.741,4.741,4.72,4.72,4.72,4.72,4.72,4.72,4.72,4.72,4.72,4.741,4.741,4.762,4.762,4.762,4.762,4.762,4.741,4.741,4.72,4.699,4.678,4.637,4.617,4.577,4.557,4.538,4.499,4.48,4.461,4.442,4.424,4.405,4.387,4.351,4.333,4.298,4.28,4.263,4.229,4.195,4.162,4.13,4.098,4.066,4.035,4.005,3.975,3.945,3.93,3.901,3.887,3.873,3.859,3.831,3.803,3.776,3.736,3.697,3.671,3.646,3.608,3.584,3.56,3.536,3.512,3.501,3.478,3.455,3.422,3.389,3.356,3.325,3.294,3.273,3.233,3.204,3.175,3.156,3.137,3.119,3.1,3.073,3.056,3.038,3.012,2.995,2.961,2.937,2.913,2.897,2.873,2.865,2.85,2.842,2.842,2.842,2.842,2.842,2.834,2.834,2.834,2.834,2.834,2.834,2.827,2.827,2.827,2.827,2.819,2.819,2.819,2.819,2.819,2.827,2.827,2.834,2.834,2.842,2.842,2.85,2.85,2.85,2.857,2.857,2.857,2.857,2.857,2.857,2.857,2.857,2.857,2.857,2.857,2.857,2.857,2.857,2.857,2.857,2.857,2.857,2.857,2.857,2.857,2.85,2.85,2.85,2.85,2.85,2.842,2.842,2.834,2.834,2.827,2.827,2.827,2.827,2.827,2.827,2.827,2.827,2.834,2.842,2.842,2.842,2.842,2.842,2.842,2.842,2.842,2.842,2.834,2.834,2.827,2.819,2.819,2.819,2.812,2.804,2.804,2.804,2.797,2.797,2.797
3.223,3.253,3.273,3.304,3.335,3.356,3.378,3.4,3.422,3.433,3.444,3.455,3.466,3.466,3.478,3.478,3.489,3.501,3.512,3.524,3.536,3.548,3.56,3.596,3.608,3.633,3.646,3.658,3.684,3.697,3.697,3.71,3.71,3.71,3.71,3.697,3.697,3.684,3.671,3.671,3.658,3.646,3.646,3.646,3.646,3.633,3.633,3.633,3.633,3.633,3.633,3.633,3.633,3.633,3.633,3.633,3.633,3.646,3.646,3.658,3.658,3.671,3.671,3.671,3.671,3.684,3.684,3.684,3.684,3.684,3.684,3.684,3.684,3.671,3.671,3.671,3.658,3.646,3.646,3.633,3.633,3.633,3.633,3.646,3.646,3.658,3.671,3.671,3.684,3.697,3.71,3.723,3.723,3.736,3.736,3.736,3.723,3.723,3.71,3.697,3.684,3.671,3.671,3.658,3.646,3.646,3.646,3.646,3.646,3.646,3.646,3.646,3.646,3.646,3.658,3.658,3.658,3.658,3.658,3.658,3.646,3.646,3.646,3.633,3.633,3.633,3.633,3.633,3.633,3.621,3.621,3.621,3.621,3.621,3.621,3.621,3.621,3.621,3.621,3.621,3.633,3.633,3.633,3.646,3.646,3.646,3.646,3.646,3.646,3.646,3.646,3.646,3.646,3.646,3.646,3.658,3.658,3.658,3.658,3.658,3.658,3.671,3.671,3.684,3.697,3.697,3.71,3.723,3.736,3.762,3.776,3.817,3.887,3.96,4.051,4.13,4.212,4.298,4.405,4.499,4.577,4.617,4.637,4.678,4.699,4.72,4.741,4.741,4.762,4.762,4.762,4.741,4.741,4.72,4.72,4.72,4.699,4.699,4.678,4.678,4.678,4.678,4.678,4.678,4.678,4.678,4.699,4.699,4.72,4.72,4.741,4.741,4.741,4.741,4.741,4.741,4.72,4.678,4.658,4.637,4.617,4.597,4.577,4.557,4.538,4.518,4.499,4.499,4.48,4.461,4.461,4.461,4.461,4.461,4.461,4.461,4.48,4.499,4.499,4.518,4.538,4.538,4.557,4.577,4.577,4.597,4.617,4.637,4.637,4.658,4.678,4.699,4.72,4.741,4.762,4.784,4.806,4.806,4.806,4.828,4.828,4.828,4.828,4.828,4.828,4.828,4.85,4.85,4.85,4.85,4.872,4.872,4.872,4.872,4.872,4.872,4.895,4.895,4.895,4.895,4.895,4.895,4.895,4.872,4.872,4.85,4.85,4.828,4.806,4.784,4.762,4.72,4.699,4.658,4.637,4.617,4.617,4.597,4.597,4.597,4.617,4.617,4.637,4.658,4.678,4.72,4.762,4.784,4.828,4.85,4.872,4.895,4.895,4.895,4.895,4.895,4.872,4.872,4.85,4.828,4.806,4.806,4.762,4.762,4.741,4.72,4.72,4.699,4.699,4.699,4.699,4.699,4.72,4.72,4.741,4.762,4.762,4.762,4.784,4.784,4.784,4.784,4.784,4.784,4.762,4.762,4.762,4.741,4.741,4.72,4.72,4.72,4.72,4.72,4.72,4.72,4.741,4.741,4.762,4.762,4.762,4.762,4.762,4.762,4.741,4.72,4.72,4.678,4.658,4.617,4.597,4.577,4.538,4.518,4.499,4.461,4.442,4.424,4.405,4.387,4.369,4.333,4.315,4.298,4.263,4.246,4.212,4.179,4.146,4.114,4.082,4.051,4.02,3.99,3.96,3.93,3.916,3.887,3.873,3.859,3.831,3.803,3.762,3.736,3.697,3.671,3.633,3.608,3.584,3.56,3.536,3.512,3.501,3.478,3.455,3.41,3.378,3.356,3.314,3.283,3.253,3.223,3.194,3.175,3.147,3.128,3.11,3.091,3.073,3.047,3.029,3.012,2.987,2.961,2.929,2.913,2.889,2.873,2.857,2.85,2.842,2.842,2.842,2.842,2.842,2.842,2.834,2.834,2.834,2.834,2.834,2.827,2.827,2.827,2.827,2.819,2.819,2.819,2.819,2.819,2.827,2.827,2.827,2.834,2.842,2.842,2.842,2.85,2.85,2.85,2.857,2.857,2.857,2.857,2.857,2.857,2.857,2.857,2.857,2.857,2.857,2.857,2.857,2.857,2.857,2.857,2.857,2.857,2.857,2.85,2.85,2.85,2.85,2.85,2.842,2.842,2.834,2.834,2.827,2.827,2.827,2.827,2.834,2.834,2.834,2.834,2.834,2.842,2.842,2.85,2.85,2.85,2.85,2.85,2.842,2.842,2.842,2.834,2.834,2.827,2.827,2.819,2.819,2.812,2.812,2.804,2.804,2.804,2.804,2.804
3.233,3.263,3.283,3.314,3.335,3.367,3.389,3.41,3.433,3.433,3.444,3.455,3.466,3.466,3.466,3.478,3.489,3.489,3.501,3.524,3.536,3.548,3.572,3.596,3.608,3.633,3.658,3.671,3.684,3.697,3.697,3.71,3.71,3.71,3.71,3.697,3.697,3.697,3.684,3.671,3.671,3.658,3.646,3.646,3.646,3.646,3.633,3.633,3.633,3.633,3.633,3.633,3.633,3.633,3.633,3.633,3.633,3.646,3.646,3.658,3.658,3.671,3.671,3.671,3.671,3.684,3.684,3.697,3.697,3.697,3.684,3.684,3.684,3.671,3.671,3.658,3.646,3.646,3.633,3.633,3.633,3.633,3.633,3.633,3.646,3.646,3.658,3.671,3.671,3.697,3.697,3.723,3.723,3.736,3.736,3.723,3.723,3.723,3.697,3.697,3.684,3.671,3.658,3.658,3.646,3.646,3.646,3.646,3.646,3.646,3.646,3.646,3.646,3.646,3.658,3.658,3.658,3.658,3.658,3.646,3.646,3.646,3.646,3.633,3.633,3.633,3.633,3.633,3.633,3.633,3.633,3.633,3.633,3.633,3.633,3.633,3.633,3.646,3.646,3.646,3.646,3.646,3.646,3.646,3.646,3.646,3.646,3.646,3.658,3.658,3.658,3.658,3.658,3.658,3.658,3.658,3.658,3.658,3.658,3.658,3.658,3.658,3.671,3.671,3.684,3.684,3.697,3.71,3.736,3.749,3.762,3.803,3.873,3.96,4.035,4.114,4.212,4.298,4.405,4.499,4.577,4.617,4.637,4.678,4.699,4.72,4.741,4.741,4.762,4.762,4.762,4.741,4.72,4.72,4.699,4.699,4.678,4.678,4.678,4.658,4.658,4.658,4.658,4.678,4.678,4.678,4.678,4.699,4.72,4.72,4.741,4.741,4.762,4.741,4.741,4.741,4.72,4.699,4.678,4.658,4.637,4.617,4.597,4.557,4.538,4.538,4.518,4.518,4.499,4.499,4.48,4.48,4.499,4.499,4.499,4.499,4.518,4.538,4.557,4.557,4.577,4.597,4.597,4.617,4.637,4.658,4.658,4.678,4.678,4.699,4.699,4.72,4.72,4.741,4.762,4.784,4.784,4.806,4.806,4.828,4.828,4.828,4.828,4.828,4.828,4.85,4.85,4.85,4.85,4.85,4.872,4.872,4.872,4.872,4.872,4.872,4.872,4.872,4.895,4.895,4.895,4.872,4.872,4.872,4.872,4.85,4.85,4.828,4.806,4.784,4.762,4.72,4.699,4.678,4.658,4.637,4.617,4.597,4.597,4.597,4.617,4.637,4.637,4.658,4.678,4.72,4.762,4.784,4.828,4.85,4.872,4.895,4.895,4.895,4.895,4.895,4.872,4.872,4.85,4.828,4.806,4.806,4.762,4.762,4.741,4.72,4.72,4.699,4.699,4.678,4.678,4.699,4.72,4.72,4.741,4.762,4.762,4.784,4.784,4.806,4.806,4.806,4.806,4.806,4.784,4.784,4.784,4.762,4.762,4.741,4.741,4.741,4.72,4.741,4.72,4.741,4.741,4.762,4.762,4.762,4.762,4.762,4.762,4.762,4.741,4.741,4.72,4.699,4.678,4.637,4.617,4.577,4.557,4.518,4.499,4.48,4.461,4.442,4.424,4.405,4.369,4.351,4.333,4.298,4.28,4.246,4.212,4.179,4.146,4.114,4.082,4.051,4.02,3.99,3.96,3.93,3.916,3.887,3.873,3.845,3.831,3.803,3.762,3.736,3.71,3.671,3.646,3.608,3.584,3.56,3.536,3.524,3.501,3.478,3.444,3.41,3.378,3.346,3.314,3.283,3.253,3.223,3.194,3.165,3.147,3.128,3.11,3.091,3.065,3.038,3.021,3.004,2.978,2.953,2.929,2.905,2.889,2.873,2.857,2.85,2.85,2.842,2.842,2.842,2.842,2.842,2.842,2.834,2.834,2.834,2.834,2.834,2.827,2.827,2.827,2.819,2.819,2.819,2.819,2.819,2.827,2.827,2.827,2.834,2.834,2.842,2.842,2.842,2.842,2.85,2.85,2.85,2.85,2.85,2.85,2.857,2.857,2.857,2.857,2.857,2.857,2.857,2.857,2.857,2.85,2.85,2.85,2.85,2.85,2.85,2.842,2.842,2.842,2.842,2.834,2.834,2.827,2.827,2.827,2.827,2.827,2.834,2.834,2.834,2.834,2.842,2.842,2.85,2.85,2.85,2.85,2.85,2.85,2.85,2.842,2.842,2.842,2.834,2.834,2.827,2.827,2.819,2.819,2.812,2.812,2.812,2.812,2.812,2.812,2.812
3.243,3.263,3.294,3.325,3.346,3.378,3.389,3.41,3.433,3.444,3.455,3.455,3.455,3.466,3.466,3.478,3.478,3.489,3.501,3.512,3.536,3.548,3.572,3.596,3.621,3.646,3.658,3.671,3.697,3.697,3.697,3.71,3.71,3.71,3.71,3.71,3.697,3.697,3.684,3.671,3.671,3.658,3.658,3.646,3.646,3.646,3.646,3.633,3.633,3.633,3.633,3.633,3.633,3.633,3.633,3.633,3.633,3.646,3.646,3.646,3.658,3.671,3.671,3.671,3.671,3.684,3.684,3.697,3.697,3.684,3.684,3.684,3.671,3.671,3.671,3.658,3.646,3.633,3.633,3.621,3.621,3.621,3.621,3.633,3.633,3.646,3.646,3.658,3.671,3.684,3.697,3.71,3.723,3.723,3.723,3.723,3.723,3.71,3.697,3.684,3.671,3.658,3.658,3.646,3.646,3.646,3.646,3.646,3.646,3.646,3.646,3.646,3.646,3.646,3.658,3.658,3.658,3.658,3.658,3.646,3.646,3.646,3.646,3.633,3.633,3.633,3.633,3.633,3.633,3.633,3.633,3.646,3.646,3.646,3.646,3.646,3.646,3.646,3.646,3.658,3.658,3.658,3.671,3.671,3.671,3.671,3.671,3.671,3.671,3.671,3.671,3.671,3.671,3.671,3.671,3.671,3.658,3.658,3.658,3.658,3.658,3.658,3.658,3.671,3.671,3.684,3.684,3.697,3.723,3.736,3.749,3.803,3.859,3.945,4.02,4.114,4.195,4.28,4.387,4.499,4.557,4.597,4.637,4.658,4.699,4.72,4.741,4.741,4.741,4.741,4.741,4.72,4.72,4.699,4.678,4.678,4.678,4.658,4.658,4.637,4.637,4.637,4.658,4.658,4.678,4.678,4.699,4.72,4.72,4.741,4.741,4.762,4.762,4.762,4.762,4.741,4.741,4.72,4.699,4.678,4.658,4.637,4.597,4.577,4.577,4.557,4.538,4.538,4.538,4.518,4.518,4.518,4.518,4.538,4.538,4.538,4.557,4.577,4.597,4.617,4.617,4.637,4.658,4.678,4.678,4.699,4.699,4.699,4.699,4.72,4.72,4.72,4.741,4.741,4.762,4.784,4.784,4.806,4.806,4.806,4.828,4.828,4.828,4.828,4.828,4.85,4.85,4.85,4.872,4.872,4.872,4.872,4.872,4.872,4.872,4.872,4.872,4.872,4.872,4.872,4.872,4.872,4.872,4.872,4.85,4.85,4.85,4.828,4.806,4.784,4.762,4.72,4.699,4.678,4.658,4.637,4.617,4.617,4.597,4.617,4.617,4.637,4.637,4.678,4.678,4.72,4.762,4.784,4.828,4.85,4.872,4.895,4.895,4.895,4.895,4.895,4.872,4.85,4.85,4.828,4.806,4.806,4.762,4.762,4.741,4.72,4.72,4.699,4.699,4.699,4.699,4.699,4.72,4.72,4.741,4.762,4.762,4.784,4.806,4.806,4.806,4.828,4.828,4.806,4.806,4.806,4.806,4.784,4.762,4.762,4.762,4.741,4.741,4.741,4.741,4.741,4.741,4.762,4.762,4.762,4.762,4.762,4.762,4.762,4.762,4.741,4.72,4.699,4.678,4.658,4.617,4.597,4.577,4.538,4.518,4.499,4.461,4.442,4.424,4.405,4.369,4.351,4.315,4.298,4.263,4.246,4.212,4.179,4.146,4.114,4.082,4.051,4.02,3.99,3.96,3.93,3.901,3.887,3.859,3.845,3.817,3.789,3.749,3.723,3.697,3.671,3.633,3.608,3.584,3.56,3.536,3.512,3.501,3.466,3.433,3.41,3.367,3.335,3.304,3.273,3.243,3.204,3.175,3.147,3.128,3.11,3.091,3.073,3.056,3.029,3.012,2.987,2.97,2.945,2.921,2.897,2.881,2.873,2.857,2.857,2.85,2.842,2.85,2.842,2.842,2.842,2.842,2.834,2.834,2.834,2.834,2.827,2.827,2.827,2.827,2.819,2.819,2.819,2.819,2.819,2.819,2.827,2.827,2.827,2.834,2.834,2.834,2.834,2.842,2.842,2.842,2.842,2.842,2.842,2.85,2.85,2.85,2.85,2.85,2.85,2.85,2.85,2.85,2.85,2.85,2.85,2.85,2.85,2.85,2.842,2.842,2.842,2.842,2.842,2.834,2.834,2.827,2.827,2.827,2.827,2.827,2.827,2.834,2.834,2.842,2.842,2.85,2.85,2.85,2.85,2.85,2.85,2.85,2.85,2.842,2.842,2.834,2.834,2.827,2.827,2.827,2.819,2.819,2.819,2.812,2.812,2.812,2.812,2.812,2.812
3.243,3.273,3.294,3.325,3.356,3.378,3.4,3.422,3.433,3.444,3.444,3.444,3.455,3.466,3.466,3.466,3.478,3.478,3.501,3.512,3.524,3.548,3.572,3.596,3.621,3.633,3.658,3.671,3.684,3.697,3.697,3.71,3.71,3.71,3.71,3.71,3.697,3.697,3.697,3.684,3.671,3.671,3.658,3.658,3.646,3.646,3.646,3.633,3.633,3.633,3.633,3.633,3.633,3.633,3.633,3.633,3.633,3.646,3.646,3.658,3.658,3.671,3.671,3.671,3.671,3.684,3.684,3.684,3.684,3.684,3.684,3.671,3.671,3.671,3.658,3.646,3.646,3.633,3.633,3.621,3.621,3.608,3.621,3.621,3.621,3.633,3.646,3.646,3.658,3.671,3.684,3.697,3.697,3.71,3.71,3.71,3.71,3.697,3.684,3.671,3.671,3.658,3.646,3.646,3.646,3.633,3.633,3.633,3.646,3.646,3.646,3.646,3.646,3.658,3.658,3.658,3.658,3.658,3.658,3.646,3.646,3.646,3.633,3.633,3.633,3.633,3.633,3.633,3.633,3.646,3.646,3.646,3.646,3.646,3.646,3.658,3.658,3.658,3.671,3.671,3.671,3.671,3.671,3.671,3.684,3.684,3.671,3.671,3.671,3.671,3.671,3.671,3.671,3.671,3.671,3.671,3.658,3.658,3.658,3.658,3.658,3.658,3.658,3.658,3.658,3.671,3.684,3.697,3.71,3.723,3.736,3.776,3.845,3.93,4.005,4.098,4.179,4.28,4.369,4.461,4.557,4.597,4.617,4.658,4.678,4.699,4.72,4.72,4.72,4.72,4.72,4.72,4.699,4.678,4.678,4.678,4.658,4.658,4.637,4.637,4.637,4.637,4.658,4.678,4.678,4.678,4.699,4.72,4.72,4.741,4.762,4.762,4.762,4.762,4.762,4.741,4.741,4.72,4.699,4.678,4.658,4.637,4.617,4.597,4.577,4.577,4.557,4.557,4.557,4.557,4.557,4.557,4.557,4.577,4.577,4.577,4.617,4.617,4.637,4.658,4.678,4.699,4.72,4.72,4.741,4.741,4.741,4.741,4.72,4.741,4.741,4.741,4.741,4.741,4.762,4.762,4.762,4.784,4.806,4.806,4.806,4.806,4.828,4.828,4.828,4.85,4.85,4.85,4.872,4.872,4.872,4.872,4.872,4.85,4.85,4.85,4.872,4.872,4.872,4.872,4.85,4.85,4.85,4.85,4.85,4.85,4.85,4.828,4.806,4.784,4.762,4.72,4.699,4.678,4.658,4.637,4.617,4.617,4.617,4.617,4.617,4.637,4.658,4.678,4.678,4.72,4.762,4.784,4.828,4.85,4.872,4.895,4.895,4.895,4.895,4.872,4.872,4.85,4.85,4.828,4.806,4.806,4.762,4.762,4.741,4.72,4.72,4.72,4.699,4.699,4.699,4.72,4.72,4.72,4.741,4.762,4.784,4.806,4.806,4.828,4.828,4.85,4.85,4.85,4.828,4.828,4.806,4.806,4.806,4.784,4.762,4.762,4.762,4.741,4.741,4.741,4.741,4.762,4.762,4.762,4.762,4.762,4.762,4.762,4.762,4.741,4.72,4.699,4.678,4.658,4.637,4.597,4.577,4.557,4.518,4.499,4.48,4.442,4.424,4.387,4.369,4.333,4.315,4.28,4.246,4.212,4.179,4.146,4.13,4.098,4.051,4.02,4.005,3.975,3.945,3.916,3.901,3.873,3.845,3.831,3.803,3.776,3.736,3.71,3.684,3.646,3.621,3.596,3.572,3.548,3.524,3.512,3.478,3.455,3.433,3.4,3.367,3.325,3.294,3.263,3.233,3.194,3.165,3.137,3.119,3.1,3.082,3.056,3.038,3.021,3.004,2.978,2.961,2.937,2.913,2.897,2.881,2.873,2.865,2.857,2.857,2.85,2.85,2.85,2.842,2.842,2.842,2.842,2.834,2.834,2.834,2.827,2.827,2.827,2.819,2.819,2.819,2.819,2.819,2.819,2.819,2.819,2.819,2.827,2.827,2.827,2.834,2.834,2.834,2.834,2.834,2.834,2.834,2.834,2.842,2.842,2.842,2.842,2.842,2.842,2.85,2.85,2.85,2.85,2.842,2.842,2.842,2.85,2.842,2.842,2.842,2.842,2.842,2.834,2.834,2.834,2.827,2.827,2.827,2.827,2.827,2.827,2.834,2.834,2.842,2.842,2.85,2.85,2.85,2.85,2.85,2.85,2.85,2.842,2.842,2.842,2.834,2.834,2.827,2.827,2.827,2.827,2.819,2.819,2.819,2.819,2.812,2.812,2.812,2.812
3.233,3.263,3.294,3.314,3.346,3.367,3.4,3.41,3.422,3.433,3.444,3.444,3.455,3.455,3.455,3.466,3.466,3.478,3.489,3.512,3.524,3.548,3.56,3.584,3.608,3.633,3.646,3.671,3.684,3.684,3.697,3.697,3.71,3.71,3.71,3.71,3.71,3.697,3.697,3.684,3.671,3.671,3.671,3.658,3.658,3.646,3.646,3.646,3.646,3.633,3.633,3.633,3.633,3.633,3.633,3.633,3.633,3.646,3.646,3.658,3.658,3.671,3.671,3.671,3.671,3.671,3.684,3.684,3.684,3.684,3.684,3.671,3.671,3.671,3.658,3.646,3.646,3.633,3.621,3.621,3.608,3.608,3.608,3.621,3.621,3.633,3.633,3.646,3.646,3.671,3.671,3.684,3.697,3.697,3.697,3.697,3.697,3.684,3.684,3.671,3.658,3.646,3.646,3.633,3.633,3.633,3.633,3.633,3.633,3.646,3.646,3.646,3.646,3.658,3.658,3.658,3.658,3.658,3.658,3.646,3.646,3.646,3.633,3.633,3.633,3.633,3.633,3.633,3.633,3.646,3.646,3.646,3.646,3.646,3.658,3.671,3.671,3.671,3.671,3.684,3.684,3.684,3.697,3.697,3.697,3.697,3.684,3.684,3.684,3.684,3.684,3.671,3.671,3.671,3.671,3.671,3.671,3.658,3.658,3.658,3.658,3.658,3.658,3.658,3.658,3.658,3.671,3.684,3.697,3.71,3.723,3.762,3.831,3.901,3.99,4.082,4.162,4.263,4.369,4.461,4.538,4.577,4.617,4.637,4.678,4.699,4.699,4.699,4.72,4.72,4.72,4.699,4.678,4.678,4.658,4.658,4.637,4.637,4.637,4.637,4.637,4.637,4.658,4.678,4.678,4.678,4.699,4.72,4.72,4.741,4.762,4.762,4.762,4.762,4.762,4.741,4.741,4.72,4.699,4.678,4.658,4.658,4.637,4.617,4.617,4.597,4.577,4.577,4.577,4.577,4.577,4.577,4.597,4.597,4.617,4.617,4.637,4.658,4.678,4.699,4.72,4.741,4.741,4.762,4.762,4.762,4.762,4.762,4.741,4.741,4.72,4.741,4.72,4.72,4.741,4.741,4.762,4.762,4.784,4.784,4.784,4.806,4.806,4.828,4.828,4.85,4.85,4.85,4.872,4.872,4.872,4.872,4.85,4.85,4.85,4.85,4.85,4.85,4.85,4.85,4.85,4.85,4.85,4.85,4.85,4.828,4.828,4.806,4.806,4.784,4.762,4.72,4.699,4.678,4.658,4.637,4.617,4.617,4.617,4.617,4.617,4.637,4.658,4.658,4.678,4.72,4.741,4.784,4.806,4.828,4.85,4.85,4.872,4.85,4.85,4.85,4.85,4.85,4.828,4.806,4.806,4.806,4.784,4.762,4.762,4.741,4.72,4.72,4.72,4.72,4.72,4.72,4.72,4.741,4.762,4.762,4.784,4.806,4.806,4.828,4.85,4.85,4.85,4.85,4.85,4.85,4.85,4.828,4.806,4.806,4.784,4.784,4.762,4.762,4.762,4.741,4.741,4.762,4.762,4.762,4.762,4.762,4.762,4.762,4.762,4.741,4.741,4.72,4.699,4.678,4.658,4.617,4.597,4.557,4.538,4.499,4.48,4.461,4.424,4.387,4.351,4.333,4.298,4.263,4.229,4.195,4.162,4.13,4.098,4.066,4.051,4.02,3.99,3.96,3.93,3.901,3.887,3.859,3.831,3.817,3.789,3.762,3.723,3.697,3.671,3.646,3.608,3.584,3.56,3.536,3.512,3.489,3.478,3.444,3.422,3.389,3.356,3.314,3.294,3.253,3.223,3.184,3.156,3.137,3.11,3.091,3.073,3.047,3.029,3.012,2.995,2.97,2.945,2.929,2.913,2.897,2.881,2.873,2.865,2.865,2.857,2.857,2.857,2.857,2.85,2.842,2.842,2.842,2.842,2.834,2.827,2.827,2.827,2.827,2.819,2.819,2.819,2.819,2.819,2.819,2.819,2.819,2.819,2.819,2.827,2.827,2.827,2.827,2.827,2.827,2.827,2.827,2.827,2.827,2.834,2.834,2.834,2.834,2.834,2.834,2.842,2.842,2.842,2.842,2.842,2.842,2.842,2.842,2.842,2.842,2.842,2.834,2.834,2.834,2.834,2.827,2.827,2.827,2.827,2.827,2.827,2.827,2.834,2.842,2.842,2.85,2.85,2.85,2.85,2.85,2.85,2.85,2.842,2.842,2.842,2.834,2.834,2.834,2.827,2.827,2.827,2.827,2.819,2.819,2.819,2.819,2.819,2.812,2.812,2.812
3.233,3.253,3.283,3.314,3.335,3.356,3.378,3.4,3.41,3.422,3.433,3.444,3.444,3.455,3.455,3.466,3.466,3.478,3.489,3.501,3.524,3.536,3.56,3.572,3.596,3.621,3.633,3.658,3.658,3.671,3.684,3.697,3.697,3.697,3.71,3.71,3.71,3.697,3.697,3.697,3.684,3.671,3.671,3.671,3.658,3.658,3.646,3.646,3.646,3.646,3.646,3.633,3.633,3.633,3.633,3.633,3.646,3.646,3.646,3.658,3.658,3.671,3.671,3.671,3.671,3.671,3.671,3.684,3.684,3.671,3.671,3.671,3.671,3.671,3.658,3.646,3.646,3.633,3.633,3.621,3.621,3.608,3.608,3.621,3.621,3.621,3.633,3.633,3.646,3.658,3.671,3.671,3.684,3.684,3.684,3.684,3.684,3.671,3.671,3.658,3.646,3.646,3.633,3.633,3.633,3.633,3.633,3.633,3.633,3.633,3.646,3.646,3.646,3.658,3.658,3.658,3.658,3.658,3.658,3.658,3.646,3.646,3.646,3.633,3.633,3.633,3.633,3.633,3.633,3.646,3.646,3.646,3.646,3.658,3.671,3.671,3.671,3.684,3.684,3.697,3.697,3.697,3.697,3.697,3.697,3.697,3.697,3.697,3.697,3.684,3.684,3.684,3.671,3.671,3.671,3.671,3.671,3.658,3.658,3.658,3.658,3.658,3.646,3.658,3.658,3.658,3.671,3.684,3.697,3.697,3.723,3.762,3.817,3.901,3.975,4.066,4.162,4.246,4.351,4.442,4.518,4.577,4.597,4.637,4.658,4.678,4.678,4.699,4.699,4.699,4.699,4.678,4.678,4.658,4.658,4.637,4.637,4.637,4.637,4.637,4.658,4.658,4.678,4.678,4.678,4.699,4.72,4.72,4.72,4.741,4.762,4.762,4.762,4.762,4.762,4.741,4.741,4.72,4.699,4.678,4.678,4.658,4.637,4.637,4.617,4.617,4.617,4.597,4.597,4.597,4.597,4.617,4.617,4.637,4.658,4.658,4.678,4.699,4.72,4.72,4.741,4.762,4.784,4.784,4.784,4.784,4.784,4.762,4.741,4.741,4.72,4.72,4.72,4.72,4.72,4.72,4.741,4.741,4.762,4.762,4.784,4.784,4.806,4.828,4.828,4.828,4.85,4.85,4.872,4.872,4.872,4.872,4.85,4.85,4.85,4.85,4.85,4.85,4.85,4.85,4.85,4.85,4.828,4.828,4.828,4.828,4.806,4.806,4.784,4.762,4.741,4.72,4.699,4.678,4.658,4.637,4.617,4.617,4.617,4.617,4.617,4.637,4.637,4.658,4.678,4.72,4.741,4.762,4.784,4.806,4.828,4.85,4.85,4.85,4.828,4.828,4.828,4.828,4.806,4.806,4.806,4.806,4.784,4.762,4.762,4.762,4.741,4.741,4.741,4.741,4.72,4.741,4.741,4.762,4.762,4.784,4.806,4.806,4.828,4.85,4.85,4.85,4.872,4.872,4.872,4.872,4.85,4.85,4.828,4.806,4.806,4.784,4.784,4.762,4.762,4.762,4.762,4.762,4.741,4.741,4.741,4.741,4.762,4.762,4.762,4.741,4.741,4.72,4.72,4.699,4.658,4.637,4.617,4.577,4.538,4.499,4.48,4.461,4.424,4.387,4.351,4.315,4.28,4.246,4.212,4.179,4.146,4.114,4.082,4.051,4.02,3.99,3.96,3.945,3.916,3.887,3.873,3.845,3.817,3.789,3.762,3.736,3.71,3.684,3.658,3.633,3.608,3.584,3.56,3.536,3.512,3.489,3.466,3.444,3.41,3.378,3.346,3.304,3.283,3.253,3.214,3.184,3.156,3.128,3.11,3.082,3.065,3.047,3.021,3.004,2.987,2.961,2.945,2.929,2.913,2.897,2.889,2.881,2.873,2.865,2.865,2.857,2.857,2.857,2.85,2.85,2.842,2.842,2.842,2.834,2.834,2.827,2.827,2.819,2.819,2.819,2.819,2.819,2.819,2.819,2.819,2.819,2.819,2.819,2.819,2.819,2.827,2.827,2.827,2.827,2.827,2.819,2.827,2.827,2.827,2.827,2.827,2.827,2.827,2.827,2.834,2.834,2.834,2.834,2.834,2.842,2.842,2.842,2.842,2.842,2.842,2.842,2.834,2.834,2.834,2.834,2.827,2.827,2.827,2.827,2.834,2.834,2.834,2.842,2.842,2.85,2.85,2.85,2.85,2.85,2.85,2.842,2.842,2.842,2.834,2.834,2.834,2.834,2.827,2.827,2.827,2.827,2.819,2.819,2.819,2.819,2.819,2.819,2.812,2.812
3.214,3.243,3.263,3.294,3.314,3.346,3.367,3.389,3.4,3.422,3.433,3.433,3.444,3.444,3.455,3.455,3.466,3.478,3.489,3.501,3.512,3.524,3.548,3.572,3.584,3.596,3.621,3.633,3.646,3.658,3.671,3.671,3.684,3.697,3.697,3.71,3.71,3.697,3.697,3.697,3.697,3.684,3.671,3.671,3.671,3.671,3.658,3.658,3.658,3.658,3.646,3.646,3.646,3.646,3.646,3.646,3.646,3.646,3.658,3.658,3.658,3.671,3.671,3.671,3.671,3.671,3.671,3.671,3.671,3.671,3.671,3.671,3.671,3.671,3.658,3.646,3.646,3.633,3.633,3.621,3.621,3.621,3.608,3.621,3.621,3.621,3.633,3.633,3.646,3.646,3.658,3.658,3.671,3.671,3.671,3.671,3.671,3.671,3.658,3.646,3.646,3.633,3.633,3.633,3.633,3.633,3.633,3.633,3.633,3.633,3.646,3.646,3.646,3.658,3.658,3.658,3.671,3.671,3.658,3.658,3.658,3.646,3.646,3.646,3.633,3.633,3.633,3.633,3.633,3.646,3.646,3.646,3.646,3.658,3.671,3.671,3.671,3.684,3.697,3.697,3.697,3.697,3.697,3.71,3.71,3.71,3.697,3.697,3.697,3.684,3.684,3.684,3.671,3.671,3.671,3.671,3.658,3.658,3.658,3.646,3.646,3.646,3.646,3.646,3.658,3.658,3.671,3.684,3.684,3.697,3.723,3.749,3.817,3.901,3.975,4.066,4.146,4.229,4.333,4.424,4.518,4.557,4.577,4.617,4.637,4.637,4.658,4.678,4.678,4.678,4.678,4.678,4.658,4.637,4.637,4.637,4.637,4.637,4.658,4.658,4.678,4.678,4.678,4.699,4.699,4.72,4.72,4.72,4.741,4.741,4.741,4.762,4.762,4.762,4.762,4.741,4.72,4.72,4.699,4.699,4.678,4.658,4.658,4.637,4.637,4.637,4.617,4.617,4.617,4.617,4.637,4.637,4.658,4.658,4.678,4.699,4.699,4.72,4.741,4.762,4.762,4.784,4.784,4.806,4.806,4.806,4.784,4.762,4.741,4.741,4.72,4.72,4.699,4.699,4.699,4.72,4.72,4.72,4.741,4.762,4.762,4.784,4.806,4.806,4.828,4.828,4.85,4.85,4.85,4.872,4.85,4.85,4.85,4.85,4.85,4.85,4.85,4.828,4.828,4.828,4.828,4.828,4.828,4.806,4.806,4.806,4.806,4.806,4.784,4.762,4.741,4.72,4.678,4.658,4.658,4.637,4.617,4.617,4.617,4.617,4.617,4.637,4.637,4.658,4.678,4.699,4.72,4.741,4.762,4.784,4.806,4.806,4.806,4.806,4.806,4.806,4.806,4.806,4.806,4.806,4.806,4.784,4.784,4.784,4.762,4.762,4.762,4.762,4.762,4.762,4.741,4.762,4.762,4.762,4.762,4.784,4.806,4.806,4.828,4.85,4.85,4.872,4.872,4.872,4.872,4.872,4.872,4.872,4.85,4.828,4.828,4.806,4.806,4.784,4.762,4.762,4.762,4.762,4.762,4.741,4.741,4.741,4.762,4.762,4.762,4.741,4.741,4.741,4.72,4.699,4.678,4.658,4.617,4.597,4.557,4.518,4.48,4.461,4.424,4.387,4.351,4.298,4.28,4.229,4.212,4.162,4.13,4.082,4.066,4.035,4.005,3.975,3.945,3.916,3.901,3.873,3.859,3.831,3.803,3.776,3.749,3.723,3.697,3.671,3.646,3.621,3.596,3.572,3.548,3.524,3.501,3.478,3.455,3.433,3.4,3.367,3.335,3.304,3.273,3.243,3.204,3.175,3.147,3.128,3.1,3.082,3.056,3.038,3.012,2.995,2.978,2.961,2.945,2.921,2.913,2.897,2.889,2.881,2.881,2.873,2.865,2.857,2.857,2.857,2.85,2.85,2.842,2.834,2.834,2.834,2.834,2.827,2.819,2.819,2.819,2.819,2.812,2.812,2.812,2.812,2.819,2.819,2.819,2.819,2.819,2.819,2.819,2.819,2.819,2.827,2.819,2.819,2.819,2.819,2.819,2.819,2.819,2.819,2.819,2.827,2.827,2.827,2.827,2.834,2.834,2.842,2.842,2.842,2.842,2.842,2.842,2.842,2.842,2.842,2.834,2.834,2.834,2.834,2.834,2.834,2.834,2.842,2.842,2.842,2.85,2.85,2.85,2.85,2.85,2.85,2.85,2.842,2.842,2.842,2.834,2.834,2.834,2.827,2.827,2.827,2.827,2.819,2.819,2.819,2.819,2.819,2.819,2.819,2.819,2.812
3.204,3.223,3.243,3.273,3.294,3.325,3.346,3.367,3.389,3.41,3.422,3.433,3.444,3.444,3.455,3.466,3.466,3.478,3.478,3.501,3.512,3.524,3.536,3.56,3.572,3.596,3.608,3.621,3.633,3.633,3.646,3.658,3.671,3.684,3.697,3.71,3.71,3.71,3.71,3.697,3.697,3.697,3.684,3.684,3.671,3.671,3.671,3.671,3.671,3.671,3.658,3.658,3.658,3.658,3.658,3.658,3.658,3.658,3.658,3.658,3.671,3.671,3.671,3.671,3.671,3.671,3.671,3.671,3.671,3.671,3.671,3.671,3.671,3.671,3.658,3.646,3.646,3.633,3.633,3.621,3.621,3.621,3.621,3.621,3.621,3.621,3.633,3.633,3.633,3.646,3.646,3.646,3.658,3.658,3.658,3.658,3.658,3.658,3.658,3.646,3.633,3.633,3.633,3.633,3.633,3.633,3.633,3.633,3.633,3.633,3.646,3.646,3.646,3.658,3.671,3.671,3.671,3.671,3.671,3.671,3.658,3.658,3.646,3.646,3.646,3.633,3.633,3.633,3.633,3.646,3.646,3.646,3.646,3.658,3.671,3.671,3.671,3.684,3.697,3.697,3.697,3.697,3.71,3.71,3.71,3.71,3.697,3.697,3.697,3.684,3.684,3.684,3.671,3.671,3.671,3.658,3.658,3.646,3.646,3.646,3.646,3.646,3.646,3.646,3.658,3.658,3.671,3.684,3.697,3.71,3.723,3.762,3.817,3.901,3.975,4.066,4.146,4.229,4.315,4.424,4.499,4.538,4.577,4.597,4.617,4.637,4.658,4.658,4.658,4.658,4.658,4.658,4.658,4.637,4.637,4.658,4.658,4.658,4.678,4.678,4.678,4.678,4.699,4.72,4.72,4.72,4.72,4.72,4.741,4.741,4.741,4.741,4.741,4.741,4.741,4.72,4.72,4.72,4.699,4.699,4.678,4.678,4.658,4.658,4.637,4.637,4.637,4.637,4.637,4.637,4.637,4.658,4.678,4.678,4.699,4.72,4.72,4.741,4.762,4.762,4.784,4.784,4.806,4.806,4.806,4.806,4.784,4.762,4.741,4.72,4.72,4.699,4.678,4.678,4.678,4.699,4.699,4.72,4.72,4.741,4.741,4.762,4.784,4.806,4.828,4.828,4.85,4.85,4.85,4.85,4.85,4.828,4.828,4.828,4.828,4.828,4.828,4.806,4.806,4.806,4.806,4.806,4.806,4.806,4.806,4.806,4.806,4.784,4.762,4.762,4.72,4.72,4.678,4.658,4.658,4.637,4.617,4.617,4.617,4.617,4.617,4.617,4.637,4.637,4.658,4.678,4.699,4.72,4.741,4.762,4.762,4.762,4.762,4.762,4.762,4.762,4.762,4.762,4.784,4.784,4.784,4.784,4.784,4.784,4.784,4.784,4.784,4.784,4.784,4.762,4.762,4.762,4.762,4.784,4.784,4.784,4.806,4.806,4.828,4.85,4.85,4.872,4.872,4.872,4.872,4.872,4.872,4.872,4.85,4.85,4.828,4.828,4.806,4.806,4.784,4.762,4.762,4.762,4.762,4.741,4.741,4.741,4.741,4.762,4.762,4.741,4.762,4.741,4.72,4.699,4.699,4.658,4.637,4.617,4.577,4.538,4.499,4.461,4.424,4.387,4.351,4.298,4.263,4.229,4.195,4.162,4.114,4.082,4.051,4.02,3.99,3.96,3.93,3.901,3.887,3.859,3.845,3.817,3.789,3.762,3.736,3.71,3.684,3.658,3.633,3.608,3.584,3.56,3.536,3.512,3.489,3.466,3.444,3.422,3.389,3.356,3.325,3.294,3.263,3.233,3.204,3.175,3.147,3.119,3.1,3.073,3.056,3.038,3.012,2.987,2.978,2.961,2.937,2.921,2.913,2.905,2.897,2.889,2.881,2.873,2.873,2.865,2.857,2.857,2.85,2.85,2.842,2.842,2.834,2.834,2.834,2.827,2.819,2.819,2.812,2.812,2.812,2.812,2.812,2.812,2.812,2.812,2.819,2.819,2.819,2.819,2.819,2.819,2.819,2.819,2.819,2.812,2.812,2.812,2.812,2.812,2.812,2.804,2.812,2.812,2.819,2.827,2.827,2.834,2.834,2.842,2.842,2.85,2.85,2.85,2.85,2.85,2.842,2.842,2.842,2.842,2.842,2.834,2.834,2.842,2.842,2.842,2.85,2.85,2.85,2.857,2.857,2.857,2.85,2.85,2.85,2.842,2.842,2.834,2.834,2.827,2.827,2.827,2.827,2.819,2.819,2.819,2.819,2.819,2.819,2.819,2.819,2.819,2.819,2.812
