2.511,2.499,2.482,2.47,2.459,2.453,2.442,2.43,2.425,2.419,2.408,2.408,2.403,2.403,2.403,2.408,2.414,2.419,2.43,2.442,2.453,2.464,2.482,2.494,2.499,2.511,2.523,2.529,2.535,2.535,2.535,2.541,2.541,2.541,2.541,2.541,2.535,2.535,2.535,2.535,2.535,2.535,2.535,2.541,2.548,2.554,2.56,2.572,2.579,2.591,2.598,2.611,2.617,2.623,2.63,2.637,2.643,2.65,2.663,2.67,2.69,2.697,2.76,2.865,2.987,0,3.273,3.433,3.608,3.789,3.803,3.831,3.859,3.887,3.916,3.93,3.945,3.96,3.975,3.99,4.005,4.005,4.005,4.005,4.005,3.99,3.99,3.99,3.975,3.96,3.945,3.945,3.93,3.93,3.916,3.916,3.901,3.887,3.887,3.887,3.873,3.873,3.873,3.873,3.873,3.873,3.873,3.873,3.873,3.873,3.873,3.873,3.873,3.887,3.887,3.887,3.887,3.887,3.887,3.887,3.887,3.887,3.901,3.901,3.901,3.887,3.901,3.901,3.901,3.901,3.901,3.887,3.887,3.887,3.887,3.887,3.873,3.873,3.859,3.859,3.845,3.845,3.831,3.817,3.803,3.803,3.789,3.776,0,0,0,0,0,0,0,0,0,0,0,0,0,0,0,0,0,0,0,0,1.189,1.195,1.199,1.204,1.208,1.212,1.215,1.217,1.219,1.222,1.224,1.224,1.224,1.224,1.224,1.224,1.222,1.222,1.222,1.222,1.222,1.221,1.219,1.219,1.218,1.218,1.217,1.217,1.217,1.215,1.215,1.215,1.215,1.215,1.215,1.214,1.212,1.21,1.207,1.204,1.201,1.197,1.193,1.188,1.184,1.179,1.173,1.17,1.166,1.162,1.157,1.153,1.149,1.147,1.143,1.141,1.137,1.134,1.133,1.131,1.13,1.128,1.126,1.125,1.124,1.122,1.121,1.119,1.118,1.115,1.114,1.113,1.112,1.112,1.109,1.108,1.106,1.105,1.105,1.104,1.102,1.102,1.102,1.102,1.104,1.102,1.104,1.104,1.104,1.104,1.104,1.104,1.104,1.104,1.104,1.105,1.104,1.104,1.104,1.104,1.104,1.104,1.104,1.105,1.106,1.106,1.106,1.105,1.105,1.105,1.106,1.106,1.105,1.105,1.105,1.106,1.107,1.107,1.107,1.106,1.106,1.107,1.107,1.107,1.107,1.106,1.106,1.107,1.107,1.107,1.107,1.107,1.107,1.107,1.107,1.107,1.106,1.107,1.107,1.107,1.107,1.107,1.108,1.108,1.108,1.108,1.108,1.108,1.108,1.107,1.106,1.106,1.106,1.106,1.107,1.107,1.107,1.107,1.107,1.107,1.107,1.107,1.107,1.107,1.108,1.108,1.109,1.109,1.112,1.112,1.113,1.113,1.114,1.113,1.113,1.114,1.114,1.114,1.114,1.115,1.116,1.118,1.119,1.119,1.119,1.12,1.122,1.125,1.127,1.131,1.133,1.137,1.141,1.144,1.15,1.154,1.159,1.164,1.171,1.177,1.185,1.193,1.201,1.21,1.218,1.227,1.234,1.239,1.245,1.247,1.251,1.253,1.254,1.254,1.256,1.257,1.257,1.259,1.262,1.262,1.263,1.266,1.268,1.268,1.268,1.269,1.271,1.272,1.274,1.274,1.275,1.277,1.28,1.28,1.28,1.28,1.278,1.277,1.275,1.272,1.271,1.266,1.265,1.263,1.26,1.257,0,0,0,0,0,0,0,0,0,0,0,0,0,0,3.444,3.422,3.4,3.367,3.335,3.304,3.273,3.263,3.243,3.233,3.223,3.233,3.243,3.253,3.273,3.283,3.304,3.294,3.294,3.273,3.253,3.233,3.214,3.194,3.175,3.165,3.156,3.156,3.156,3.147,3.147,3.137,3.128,3.119,3.11,3.1,3.1,3.091,3.082,3.082,3.073,3.065,3.065,3.056,3.056,3.047,3.047,3.038,3.029,3.021,3.012,3.004,2.995,2.987,2.97,2.97,2.961,2.953,0,0,2.945,0,0,0,0,0,0,1.995,1.995,1.995,1.995,1.999,2.002,2.002,2.01,2.01,2.018,2.022,2.029,2.033,2.037,2.037,2.041,2.041,2.041,2.041,2.041,2.037,2.033,2.033,2.029,2.029,2.029,2.033,2.033,2.033,2.037,2.041,2.049,2.053,2.061,2.065
2.505,2.499,2.488,2.476,2.464,2.453,2.447,2.436,2.43,2.425,2.419,2.414,2.408,2.408,2.408,2.408,2.414,2.419,2.425,2.436,2.447,2.464,2.476,2.488,2.499,2.505,2.517,2.523,2.529,2.535,2.535,2.535,2.535,2.535,2.541,2.535,2.535,2.535,2.535,2.535,2.535,2.535,2.535,2.541,2.541,2.554,2.56,2.566,2.579,2.585,2.598,2.604,2.617,2.623,2.63,2.637,2.643,2.65,2.663,2.677,2.69,2.711,2.782,2.889,3.012,0,3.304,3.466,3.646,3.803,3.817,3.845,3.873,3.901,3.916,3.945,3.96,3.975,3.975,3.99,4.005,4.005,4.005,4.005,4.005,4.005,4.005,3.99,3.975,3.975,3.96,3.96,3.945,3.93,3.93,3.916,3.901,3.887,3.887,3.873,3.873,3.873,3.873,3.859,3.859,3.873,3.873,3.873,3.873,3.887,3.887,3.887,3.887,3.901,3.901,3.901,3.901,3.901,3.916,3.916,3.916,3.916,3.916,3.916,3.916,3.916,3.901,3.901,3.901,3.901,3.901,3.901,3.887,3.887,3.887,3.887,3.873,3.873,3.859,3.859,3.845,3.845,3.831,3.817,3.803,3.803,3.789,3.776,3.776,0,0,0,0,0,0,0,0,0,0,0,0,0,0,0,0,0,0,0,0,1.208,1.212,1.217,1.219,1.221,1.225,1.227,1.228,1.229,1.229,1.228,1.228,1.228,1.228,1.227,1.227,1.227,1.225,1.225,1.224,1.222,1.221,1.221,1.221,1.219,1.219,1.218,1.218,1.218,1.218,1.218,1.218,1.218,1.218,1.217,1.215,1.214,1.212,1.208,1.206,1.201,1.197,1.193,1.188,1.183,1.179,1.173,1.168,1.163,1.159,1.154,1.15,1.148,1.144,1.142,1.138,1.136,1.133,1.132,1.13,1.128,1.126,1.125,1.124,1.122,1.121,1.12,1.118,1.116,1.114,1.113,1.112,1.111,1.109,1.107,1.106,1.105,1.105,1.104,1.102,1.102,1.102,1.104,1.104,1.104,1.104,1.105,1.105,1.105,1.105,1.104,1.104,1.105,1.105,1.105,1.104,1.104,1.105,1.105,1.105,1.105,1.105,1.106,1.106,1.106,1.106,1.106,1.105,1.106,1.106,1.105,1.105,1.105,1.105,1.106,1.107,1.107,1.107,1.106,1.107,1.107,1.107,1.107,1.107,1.107,1.107,1.108,1.107,1.107,1.107,1.108,1.107,1.107,1.107,1.107,1.106,1.106,1.107,1.107,1.107,1.107,1.108,1.108,1.108,1.108,1.109,1.108,1.108,1.107,1.106,1.106,1.106,1.106,1.106,1.107,1.107,1.108,1.108,1.108,1.108,1.108,1.108,1.108,1.108,1.108,1.109,1.111,1.112,1.113,1.114,1.114,1.114,1.114,1.114,1.114,1.115,1.114,1.114,1.115,1.116,1.118,1.119,1.119,1.12,1.121,1.122,1.125,1.128,1.131,1.134,1.138,1.142,1.147,1.152,1.157,1.162,1.167,1.173,1.18,1.189,1.197,1.204,1.212,1.221,1.229,1.237,1.242,1.247,1.25,1.253,1.256,1.256,1.257,1.257,1.259,1.26,1.262,1.263,1.265,1.266,1.268,1.268,1.269,1.269,1.269,1.271,1.274,1.274,1.275,1.277,1.278,1.28,1.28,1.282,1.278,1.277,1.274,1.274,1.271,1.269,1.266,1.265,1.263,1.262,0,0,0,0,0,0,0,0,0,0,0,0,0,0,0,3.466,3.444,3.422,3.389,3.346,3.325,3.304,3.294,3.283,3.273,3.273,3.283,3.294,3.314,3.325,3.335,3.346,3.335,3.314,3.304,3.273,3.253,3.223,3.204,3.175,3.165,3.165,3.156,3.156,3.156,3.147,3.137,3.137,3.128,3.119,3.11,3.1,3.091,3.082,3.082,3.073,3.073,3.065,3.065,3.056,3.056,3.056,3.047,3.038,3.038,3.029,3.021,3.012,3.004,2.995,2.978,0,0,0,0,0,0,0,0,0,0,1.995,1.995,1.995,1.995,1.995,1.995,1.995,1.999,2.002,2.006,2.01,2.014,2.018,2.025,2.025,2.029,2.029,2.033,2.033,2.033,2.029,2.029,2.029,2.025,2.025,2.025,2.025,2.025,2.025,2.029,2.033,2.037,2.045,2.049,2.053,2.061
2.505,2.494,2.482,2.476,2.464,2.459,2.447,2.442,2.43,2.425,2.419,2.414,2.414,2.414,2.414,2.414,2.414,2.419,2.425,2.436,2.447,2.459,2.47,2.482,2.494,2.505,2.511,2.517,2.523,2.529,2.535,2.535,2.535,2.535,2.541,2.541,2.535,2.535,2.535,2.535,2.535,2.535,2.535,2.535,2.541,2.548,2.56,2.566,2.579,2.585,2.598,2.604,2.617,2.623,2.63,2.637,2.643,2.65,2.663,2.683,2.697,2.725,2.804,2.921,3.047,0,3.346,3.512,3.671,3.831,3.831,3.859,3.887,3.916,3.945,3.945,3.96,3.975,3.99,3.99,4.005,4.005,4.02,4.02,4.02,4.005,4.005,3.99,3.99,3.975,3.975,3.96,3.96,3.945,3.93,3.916,3.901,3.901,3.887,3.873,3.873,3.859,3.859,3.859,3.859,3.859,3.859,3.873,3.873,3.873,3.887,3.901,3.901,3.916,3.916,3.916,3.93,3.93,3.93,3.945,3.945,3.945,3.945,3.93,3.93,3.93,3.916,3.916,3.916,3.916,3.916,3.901,3.901,3.887,3.887,3.887,3.873,3.873,3.859,3.845,3.845,3.831,3.831,3.817,3.803,3.803,3.789,3.776,3.776,3.776,0,0,0,0,0,0,0,0,0,0,0,0,0,0,0,0,0,0,0,1.221,1.225,1.228,1.231,1.232,1.235,1.235,1.235,1.235,1.234,1.234,1.232,1.232,1.231,1.229,1.229,1.228,1.228,1.228,1.227,1.225,1.224,1.224,1.222,1.222,1.221,1.219,1.219,1.219,1.219,1.219,1.219,1.219,1.219,1.219,1.219,1.218,1.215,1.214,1.21,1.207,1.203,1.199,1.193,1.188,1.183,1.177,1.172,1.166,1.162,1.157,1.153,1.149,1.145,1.142,1.139,1.137,1.134,1.132,1.13,1.128,1.126,1.125,1.124,1.122,1.121,1.12,1.118,1.116,1.114,1.113,1.112,1.111,1.108,1.107,1.106,1.105,1.105,1.104,1.102,1.102,1.104,1.104,1.105,1.105,1.105,1.105,1.105,1.105,1.105,1.104,1.104,1.105,1.105,1.105,1.105,1.104,1.105,1.105,1.105,1.105,1.105,1.106,1.106,1.107,1.107,1.107,1.106,1.106,1.106,1.106,1.105,1.105,1.106,1.106,1.106,1.107,1.107,1.107,1.108,1.107,1.107,1.107,1.107,1.108,1.108,1.108,1.108,1.107,1.107,1.108,1.108,1.107,1.106,1.106,1.106,1.106,1.107,1.107,1.106,1.107,1.107,1.108,1.108,1.108,1.109,1.109,1.108,1.107,1.107,1.106,1.106,1.106,1.107,1.107,1.108,1.108,1.109,1.109,1.109,1.109,1.108,1.108,1.109,1.109,1.109,1.111,1.113,1.113,1.114,1.115,1.115,1.115,1.115,1.115,1.115,1.115,1.115,1.116,1.116,1.118,1.119,1.12,1.12,1.121,1.122,1.125,1.128,1.132,1.134,1.139,1.143,1.148,1.153,1.158,1.164,1.17,1.176,1.184,1.192,1.2,1.207,1.217,1.224,1.232,1.239,1.245,1.248,1.251,1.256,1.257,1.257,1.259,1.26,1.262,1.262,1.263,1.265,1.266,1.268,1.268,1.269,1.269,1.269,1.269,1.271,1.274,1.274,1.275,1.275,1.278,1.278,1.28,1.28,1.278,1.274,1.274,1.272,1.271,1.268,1.266,0,0,0,0,0,0,0,0,0,0,0,0,0,0,0,0,0,3.501,3.466,3.444,3.433,3.4,3.367,3.346,3.335,3.325,3.325,3.325,3.325,3.346,3.356,3.367,3.378,3.389,3.389,3.367,3.335,3.314,3.283,3.263,3.223,3.204,3.184,3.165,3.165,3.156,3.156,3.156,3.156,3.147,3.137,3.128,3.119,3.11,3.11,3.1,3.091,3.082,3.082,3.073,3.065,3.065,3.065,3.065,3.056,3.056,3.056,3.047,3.047,3.038,3.029,3.021,3.012,0,0,0,0,0,0,0,0,0,1.999,1.995,1.995,1.995,1.995,1.995,1.995,1.999,1.999,1.999,2.002,2.006,2.006,2.014,2.018,2.022,2.022,2.025,2.029,2.029,2.029,2.029,2.029,2.029,2.029,2.025,2.025,2.025,2.025,2.025,2.025,2.029,2.033,2.033,2.041,2.045,2.049,2.053
2.505,2.494,2.488,2.476,2.464,2.459,2.453,2.442,2.436,2.43,2.425,2.419,2.419,2.414,2.414,2.414,2.414,2.419,2.425,2.436,2.447,2.459,2.47,2.476,2.488,2.499,2.505,2.517,2.523,2.529,2.529,2.529,2.535,2.535,2.541,2.541,2.535,2.535,2.535,2.535,2.535,2.535,2.535,2.535,2.541,2.554,2.56,2.566,2.572,2.585,2.598,2.604,2.617,2.623,2.63,2.637,2.65,2.656,2.67,2.683,2.704,2.746,2.842,2.953,3.091,0,3.389,3.548,3.71,3.845,3.859,3.887,3.916,3.93,3.96,3.96,3.975,3.99,3.99,4.005,4.02,4.02,4.02,4.02,4.02,4.02,4.005,4.005,3.99,3.99,3.975,3.96,3.96,3.945,3.93,3.916,3.916,3.901,3.887,3.873,3.859,3.859,3.845,3.845,3.845,3.845,3.859,3.859,3.873,3.887,3.887,3.901,3.916,3.93,3.93,3.945,3.945,3.96,3.96,3.96,3.96,3.96,3.96,3.96,3.945,3.945,3.945,3.93,3.93,3.916,3.916,3.916,3.901,3.901,3.887,3.887,3.873,3.873,3.859,3.845,3.845,3.831,3.817,3.803,3.803,3.803,3.789,3.776,3.776,3.776,3.762,0,0,0,0,0,0,0,0,0,0,0,0,0,0,0,0,0,0,1.239,1.239,1.239,1.242,1.242,1.242,1.242,1.241,1.239,1.238,1.238,1.237,1.235,1.234,1.232,1.232,1.231,1.231,1.229,1.229,1.228,1.227,1.225,1.225,1.224,1.224,1.222,1.221,1.221,1.222,1.222,1.222,1.222,1.222,1.222,1.222,1.222,1.219,1.218,1.215,1.212,1.208,1.204,1.199,1.193,1.187,1.181,1.176,1.17,1.164,1.158,1.154,1.15,1.147,1.143,1.139,1.137,1.134,1.132,1.131,1.128,1.126,1.125,1.124,1.122,1.121,1.12,1.118,1.116,1.115,1.113,1.112,1.111,1.108,1.107,1.106,1.105,1.105,1.104,1.102,1.102,1.104,1.104,1.104,1.104,1.105,1.105,1.105,1.105,1.105,1.104,1.105,1.105,1.105,1.105,1.105,1.104,1.105,1.105,1.105,1.105,1.105,1.106,1.107,1.107,1.107,1.107,1.106,1.106,1.106,1.106,1.105,1.105,1.106,1.106,1.106,1.107,1.107,1.107,1.108,1.108,1.107,1.107,1.107,1.108,1.108,1.108,1.108,1.108,1.108,1.108,1.108,1.107,1.106,1.106,1.106,1.106,1.107,1.107,1.107,1.107,1.108,1.108,1.108,1.109,1.109,1.109,1.108,1.107,1.107,1.106,1.106,1.106,1.107,1.108,1.108,1.109,1.109,1.109,1.109,1.109,1.109,1.109,1.109,1.111,1.111,1.112,1.113,1.114,1.115,1.116,1.116,1.116,1.116,1.116,1.116,1.116,1.116,1.116,1.118,1.119,1.12,1.12,1.121,1.122,1.124,1.126,1.128,1.132,1.136,1.139,1.144,1.149,1.155,1.161,1.167,1.173,1.18,1.188,1.196,1.204,1.212,1.219,1.228,1.237,1.242,1.247,1.251,1.253,1.257,1.259,1.26,1.262,1.262,1.263,1.265,1.266,1.266,1.268,1.268,1.269,1.269,1.269,1.269,1.269,1.271,1.274,1.274,1.274,1.275,1.277,1.278,1.278,1.28,1.277,1.272,1.272,1.271,0,0,0,0,0,0,0,0,0,0,0,0,0,0,0,0,0,0,0,3.524,3.512,3.501,3.478,3.466,3.433,3.4,3.378,3.378,3.378,3.367,3.367,3.378,3.389,3.41,3.422,3.422,3.422,3.422,3.389,3.367,3.335,3.304,3.263,3.233,3.204,3.184,3.165,3.165,3.156,3.156,3.156,3.156,3.147,3.147,3.137,3.128,3.119,3.11,3.1,3.091,3.082,3.082,3.073,3.065,3.065,3.065,3.065,3.065,3.065,3.056,3.056,3.047,3.047,3.047,3.038,3.029,0,0,0,0,0,0,0,0,1.995,1.999,1.995,1.995,1.995,1.995,1.995,1.995,1.995,1.999,1.999,1.999,2.002,2.006,2.01,2.014,2.014,2.018,2.022,2.022,2.025,2.025,2.025,2.025,2.025,2.025,2.022,2.025,2.025,2.025,2.025,2.025,2.029,2.029,2.029,2.033,2.037,2.041,2.045
2.505,2.499,2.488,2.476,2.47,2.459,2.453,2.447,2.442,2.43,2.43,2.425,2.419,2.419,2.419,2.419,2.419,2.419,2.425,2.436,2.447,2.453,2.464,2.476,2.488,2.494,2.505,2.511,2.517,2.523,2.523,2.529,2.535,2.535,2.541,2.541,2.541,2.535,2.535,2.535,2.535,2.535,2.535,2.541,2.548,2.554,2.56,2.566,2.572,2.585,2.598,2.604,2.617,2.623,2.637,2.643,2.65,2.663,2.677,2.69,2.725,2.782,2.881,3.004,3.137,0,3.444,3.608,3.749,3.859,3.887,3.916,3.93,3.945,3.975,3.99,3.99,4.005,4.005,4.005,4.02,4.02,4.02,4.02,4.02,4.02,4.02,4.005,3.99,3.99,3.975,3.975,3.96,3.945,3.945,3.93,3.916,3.901,3.887,3.873,3.859,3.859,3.845,3.845,3.845,3.845,3.845,3.859,3.873,3.887,3.901,3.916,3.93,3.945,3.96,3.96,3.975,3.975,3.99,3.99,3.99,3.99,3.975,3.975,3.975,3.96,3.96,3.945,3.93,3.93,3.93,3.916,3.916,3.901,3.887,3.887,3.873,3.873,3.859,3.845,3.845,3.831,3.817,3.817,3.803,3.789,3.789,3.776,3.776,3.776,3.762,0,0,0,0,0,0,0,0,0,0,0,0,0,0,0,0,0,0,0,1.25,1.25,1.248,1.248,1.248,1.247,1.244,1.242,1.241,1.239,1.238,1.237,1.235,1.235,1.234,1.234,1.232,1.232,1.231,1.229,1.229,1.228,1.227,1.227,1.225,1.224,1.224,1.224,1.224,1.225,1.225,1.225,1.225,1.225,1.225,1.225,1.224,1.221,1.219,1.217,1.214,1.208,1.204,1.197,1.192,1.185,1.179,1.173,1.167,1.161,1.155,1.152,1.148,1.144,1.141,1.138,1.136,1.133,1.131,1.128,1.127,1.125,1.124,1.124,1.121,1.12,1.119,1.116,1.115,1.114,1.113,1.111,1.109,1.107,1.106,1.106,1.105,1.102,1.102,1.102,1.104,1.104,1.105,1.105,1.105,1.105,1.105,1.105,1.105,1.105,1.105,1.105,1.105,1.105,1.105,1.105,1.105,1.105,1.105,1.105,1.105,1.106,1.107,1.107,1.107,1.107,1.107,1.107,1.107,1.106,1.106,1.106,1.106,1.106,1.107,1.107,1.107,1.107,1.108,1.108,1.108,1.107,1.108,1.108,1.109,1.108,1.108,1.108,1.108,1.108,1.108,1.107,1.107,1.106,1.106,1.106,1.107,1.107,1.108,1.108,1.108,1.109,1.109,1.109,1.109,1.109,1.109,1.108,1.107,1.107,1.107,1.107,1.107,1.108,1.108,1.109,1.109,1.111,1.111,1.111,1.109,1.109,1.111,1.111,1.112,1.112,1.113,1.115,1.116,1.118,1.118,1.118,1.118,1.118,1.118,1.119,1.119,1.119,1.119,1.12,1.121,1.121,1.122,1.124,1.125,1.127,1.13,1.133,1.137,1.141,1.144,1.15,1.158,1.163,1.17,1.176,1.184,1.192,1.201,1.21,1.217,1.224,1.232,1.239,1.245,1.25,1.253,1.256,1.259,1.26,1.262,1.263,1.263,1.265,1.266,1.266,1.268,1.268,1.268,1.269,1.269,1.269,1.269,1.269,1.271,1.274,1.274,1.274,1.275,1.277,0,0,1.278,1.275,1.271,1.269,1.269,0,0,0,0,0,0,0,0,0,0,0,0,0,0,0,0,0,0,0,3.536,3.524,0,0,0,0,0,3.422,0,3.4,3.41,3.41,3.422,3.433,3.433,3.455,3.455,3.455,3.444,3.41,3.378,3.335,3.304,3.273,3.233,3.204,3.184,3.165,3.165,3.156,3.156,3.156,3.147,3.147,3.137,3.128,3.119,3.11,3.1,3.1,3.091,3.082,3.082,3.073,3.065,3.065,3.065,3.065,3.065,3.065,3.065,3.056,3.056,3.056,3.056,0,0,0,0,0,0,0,0,0,1.995,1.995,1.999,1.999,1.995,1.995,1.995,1.995,1.995,1.995,1.995,1.995,1.995,1.999,1.999,2.002,2.006,2.01,2.014,2.014,2.018,2.018,2.022,2.022,2.022,2.022,2.022,2.022,2.022,2.022,2.022,2.022,2.022,2.025,2.025,2.029,2.033,2.033,2.037,2.041
2.505,2.494,2.488,2.476,2.47,2.459,2.453,2.447,2.442,2.436,2.43,2.425,2.425,2.419,2.419,2.419,2.419,2.425,2.43,2.436,2.447,2.453,2.464,2.476,2.482,2.494,2.499,2.505,2.511,2.517,2.523,2.529,2.529,2.535,2.541,2.541,2.541,2.541,2.541,2.541,2.541,2.541,2.541,2.541,2.548,2.554,2.56,2.566,2.579,2.585,2.598,2.611,2.617,2.63,2.637,2.643,2.656,2.67,2.683,2.697,2.746,2.812,2.929,3.056,3.194,3.346,3.512,3.671,3.789,3.887,3.901,3.93,3.96,3.975,3.99,4.005,4.005,4.005,4.005,4.02,4.02,4.02,4.02,4.02,4.02,4.02,4.02,4.005,3.99,3.99,3.975,3.975,3.96,3.945,3.945,3.93,3.916,3.901,3.887,3.873,3.859,3.845,3.845,3.831,3.831,3.845,3.845,3.859,3.859,3.887,3.901,3.916,3.93,3.945,3.96,3.975,3.99,3.99,4.005,4.005,4.005,4.005,4.005,3.99,3.99,3.975,3.975,3.96,3.945,3.93,3.93,3.916,3.916,3.901,3.901,3.887,3.873,3.873,3.859,3.859,3.845,3.831,3.817,3.817,3.803,3.803,3.789,3.789,3.776,3.776,3.762,0,0,0,0,0,0,0,0,0,0,0,0,0,0,0,0,0,0,0,1.257,1.256,1.254,1.253,1.251,1.25,1.248,1.245,1.242,1.241,1.239,1.238,1.237,1.237,1.235,1.235,1.234,1.234,1.232,1.231,1.231,1.229,1.228,1.228,1.227,1.227,1.227,1.227,1.227,1.227,1.227,1.228,1.228,1.228,1.228,1.228,1.227,1.225,1.222,1.219,1.217,1.212,1.207,1.201,1.195,1.188,1.183,1.176,1.17,1.163,1.158,1.154,1.149,1.145,1.142,1.139,1.137,1.134,1.132,1.13,1.127,1.126,1.125,1.124,1.122,1.121,1.119,1.118,1.116,1.115,1.113,1.111,1.109,1.107,1.106,1.106,1.104,1.102,1.102,1.104,1.105,1.105,1.105,1.105,1.105,1.105,1.106,1.105,1.105,1.105,1.105,1.105,1.105,1.105,1.105,1.105,1.105,1.106,1.105,1.105,1.105,1.106,1.107,1.107,1.107,1.107,1.107,1.107,1.107,1.107,1.106,1.106,1.107,1.107,1.107,1.106,1.107,1.107,1.108,1.108,1.107,1.107,1.108,1.109,1.111,1.111,1.109,1.108,1.108,1.108,1.108,1.108,1.107,1.106,1.107,1.107,1.108,1.108,1.108,1.109,1.109,1.111,1.111,1.109,1.111,1.111,1.109,1.109,1.108,1.107,1.107,1.107,1.108,1.109,1.109,1.109,1.111,1.111,1.112,1.112,1.111,1.111,1.111,1.112,1.112,1.113,1.114,1.116,1.118,1.119,1.119,1.119,1.119,1.12,1.12,1.12,1.12,1.12,1.121,1.121,1.122,1.124,1.124,1.125,1.127,1.13,1.132,1.136,1.139,1.143,1.147,1.153,1.159,1.166,1.172,1.18,1.188,1.197,1.206,1.214,1.222,1.229,1.237,1.242,1.248,1.253,1.256,1.257,1.26,1.262,1.263,1.263,1.265,1.265,1.266,1.266,1.268,1.268,1.268,1.269,1.269,1.269,1.269,1.269,1.271,1.272,1.274,1.274,1.275,1.275,0,1.277,1.277,1.274,1.268,0,0,0,0,0,0,0,0,0,0,0,0,0,0,0,0,0,0,0,0,0,3.536,3.524,3.512,3.501,0,0,0,3.433,3.433,3.433,3.433,3.444,3.444,3.455,3.478,3.489,3.478,3.478,3.466,3.433,3.389,3.346,3.314,3.273,3.233,3.204,3.184,3.156,3.156,3.156,3.147,3.147,3.137,3.137,3.128,3.119,3.119,3.11,3.1,3.091,3.082,3.082,3.073,3.073,3.065,3.065,3.065,3.056,3.056,3.056,3.056,3.056,3.056,3.056,3.056,0,0,0,0,0,0,0,0,1.999,1.999,1.999,1.999,1.999,1.995,1.995,1.995,1.995,1.991,1.991,1.991,1.991,1.995,1.991,1.995,1.995,1.999,1.999,2.002,2.006,2.006,2.01,2.01,2.014,2.014,2.018,2.018,2.018,2.018,2.018,2.018,2.018,2.018,2.022,2.022,2.025,2.025,2.029,2.029,2.033
2.505,2.494,2.482,2.476,2.464,2.459,2.453,2.447,2.442,2.436,2.43,2.43,2.425,2.425,2.419,2.419,2.419,2.425,2.43,2.436,2.447,2.453,2.464,2.47,2.482,2.488,2.499,2.505,2.511,2.517,2.523,2.529,2.529,2.535,2.535,2.541,2.541,2.541,2.541,2.541,2.541,2.541,2.541,2.541,2.548,2.554,2.56,2.572,2.579,2.591,2.598,2.611,2.617,2.63,2.637,2.65,2.656,2.677,2.69,2.711,2.768,2.85,2.97,3.1,3.253,3.41,3.572,3.723,3.831,3.916,3.93,3.96,3.975,3.99,4.005,4.005,4.02,4.02,4.02,4.02,4.02,4.02,4.02,4.02,4.02,4.02,4.02,4.005,3.99,3.99,3.975,3.975,3.96,3.945,3.945,3.93,3.916,3.887,3.873,3.873,3.859,3.845,3.845,3.831,3.831,3.831,3.845,3.845,3.859,3.873,3.901,3.916,3.93,3.96,3.975,3.99,3.99,4.005,4.005,4.005,4.005,4.005,4.005,3.99,3.99,3.975,3.975,3.96,3.945,3.945,3.93,3.93,3.916,3.916,3.901,3.887,3.887,3.873,3.859,3.859,3.845,3.831,3.817,3.817,3.803,3.803,3.789,3.789,3.776,3.776,3.762,0,0,0,0,0,0,0,0,0,0,0,0,0,0,0,0,0,0,0,1.265,1.262,1.259,1.257,1.256,1.253,1.25,1.247,1.244,1.242,1.241,1.239,1.238,1.238,1.237,1.237,1.235,1.235,1.234,1.232,1.232,1.231,1.231,1.229,1.228,1.228,1.227,1.227,1.228,1.228,1.229,1.229,1.229,1.229,1.231,1.229,1.228,1.227,1.224,1.221,1.218,1.214,1.208,1.203,1.197,1.191,1.185,1.179,1.172,1.166,1.161,1.155,1.152,1.148,1.144,1.141,1.138,1.136,1.134,1.131,1.128,1.127,1.126,1.125,1.124,1.121,1.12,1.119,1.116,1.116,1.114,1.112,1.109,1.107,1.106,1.106,1.105,1.102,1.102,1.104,1.105,1.105,1.105,1.105,1.106,1.106,1.106,1.106,1.105,1.105,1.105,1.106,1.106,1.105,1.105,1.105,1.106,1.106,1.106,1.105,1.106,1.107,1.107,1.107,1.107,1.107,1.107,1.107,1.107,1.107,1.106,1.107,1.107,1.107,1.107,1.106,1.106,1.107,1.107,1.107,1.107,1.107,1.108,1.109,1.111,1.111,1.111,1.109,1.109,1.109,1.108,1.108,1.107,1.107,1.108,1.108,1.108,1.108,1.109,1.109,1.111,1.111,1.111,1.111,1.111,1.111,1.109,1.109,1.108,1.107,1.107,1.107,1.108,1.109,1.111,1.111,1.111,1.112,1.112,1.112,1.112,1.112,1.112,1.112,1.113,1.114,1.115,1.116,1.119,1.12,1.12,1.12,1.121,1.121,1.121,1.121,1.121,1.122,1.122,1.124,1.125,1.125,1.126,1.127,1.13,1.132,1.136,1.138,1.141,1.144,1.148,1.155,1.162,1.168,1.175,1.184,1.192,1.201,1.21,1.218,1.227,1.232,1.239,1.247,1.251,1.254,1.257,1.259,1.262,1.263,1.265,1.265,1.266,1.266,1.268,1.268,1.268,1.268,1.268,1.268,1.269,1.269,1.269,1.271,1.271,1.274,1.274,1.274,1.275,1.277,0,1.278,1.277,0,0,0,0,0,0,0,0,0,0,0,0,0,0,0,0,0,0,0,0,0,0,0,3.536,3.524,3.512,3.501,0,0,0,3.444,3.444,3.444,3.444,3.455,3.455,3.478,3.478,3.489,3.489,3.478,3.455,3.422,3.389,3.346,3.304,3.263,3.233,3.204,3.175,3.156,3.147,3.147,3.147,3.137,3.137,3.128,3.119,3.11,3.11,3.1,3.091,3.082,3.073,3.073,3.073,3.065,3.065,3.056,3.056,3.056,3.056,3.047,3.047,3.047,3.047,3.047,3.047,0,0,0,0,0,0,1.999,1.999,1.999,2.002,1.999,1.999,1.999,1.999,1.999,1.995,1.995,1.991,1.991,1.991,1.987,1.987,1.991,1.991,1.991,1.991,1.995,1.995,1.999,1.999,2.002,2.002,2.006,2.01,2.01,2.014,2.014,2.014,2.018,2.018,2.018,2.018,2.018,2.018,2.018,2.018,2.022,2.022,2.025
2.499,2.488,2.482,2.476,2.464,2.459,2.453,2.447,2.442,2.436,2.43,2.43,2.425,2.425,2.419,2.419,2.419,2.425,2.43,2.436,2.447,2.453,2.464,2.47,2.482,2.488,2.494,2.505,2.511,2.517,2.523,2.523,2.529,2.535,2.535,2.541,2.541,2.541,2.541,2.541,2.541,2.541,2.541,2.548,2.554,2.56,2.566,2.572,2.585,2.591,2.604,2.611,2.623,2.63,2.643,2.65,2.663,2.683,2.69,2.718,2.782,2.881,3.012,3.156,3.314,3.478,3.646,3.776,3.873,3.93,3.96,3.975,4.005,4.005,4.02,4.02,4.02,4.02,4.02,4.02,4.02,4.02,4.02,4.02,4.02,4.02,4.005,4.005,3.99,3.99,3.975,3.975,3.96,3.945,3.93,3.916,3.901,3.887,3.873,3.859,3.859,3.845,3.831,3.831,3.831,3.831,3.831,3.845,3.859,3.873,3.901,3.916,3.93,3.96,3.96,3.975,3.99,4.005,4.005,4.02,4.005,4.005,4.005,4.005,3.99,3.99,3.975,3.96,3.945,3.945,3.93,3.93,3.916,3.916,3.901,3.887,3.887,3.873,3.859,3.859,3.845,3.831,3.831,3.817,3.803,3.803,3.789,3.789,3.789,3.776,0,0,0,0,0,0,0,0,0,0,0,0,0,0,0,0,0,0,0,0,1.269,1.265,1.262,1.26,1.259,1.256,1.251,1.248,1.245,1.244,1.242,1.241,1.239,1.239,1.238,1.238,1.237,1.237,1.235,1.234,1.234,1.232,1.232,1.231,1.231,1.229,1.229,1.229,1.229,1.231,1.231,1.231,1.231,1.232,1.232,1.232,1.231,1.228,1.225,1.222,1.219,1.215,1.211,1.206,1.2,1.193,1.187,1.18,1.173,1.167,1.162,1.158,1.153,1.149,1.145,1.143,1.139,1.137,1.136,1.132,1.13,1.127,1.126,1.126,1.125,1.122,1.121,1.119,1.118,1.118,1.115,1.113,1.111,1.108,1.107,1.106,1.105,1.104,1.104,1.105,1.105,1.106,1.106,1.106,1.106,1.107,1.107,1.106,1.106,1.106,1.106,1.106,1.106,1.106,1.106,1.106,1.107,1.107,1.107,1.107,1.107,1.107,1.107,1.107,1.107,1.106,1.107,1.107,1.107,1.107,1.107,1.107,1.107,1.107,1.106,1.106,1.106,1.106,1.107,1.107,1.108,1.108,1.108,1.111,1.111,1.111,1.111,1.109,1.109,1.109,1.108,1.108,1.108,1.108,1.108,1.108,1.109,1.109,1.109,1.111,1.111,1.111,1.111,1.111,1.109,1.109,1.109,1.109,1.108,1.108,1.107,1.108,1.109,1.111,1.111,1.112,1.112,1.113,1.113,1.113,1.112,1.112,1.112,1.113,1.114,1.115,1.116,1.118,1.119,1.12,1.121,1.121,1.121,1.122,1.122,1.122,1.124,1.124,1.122,1.124,1.125,1.126,1.127,1.128,1.131,1.133,1.137,1.139,1.143,1.147,1.15,1.157,1.164,1.171,1.177,1.187,1.195,1.204,1.212,1.222,1.229,1.237,1.242,1.248,1.253,1.257,1.259,1.26,1.263,1.265,1.265,1.266,1.266,1.266,1.268,1.268,1.268,1.268,1.268,1.268,1.269,1.269,1.269,1.271,1.272,1.274,1.274,1.275,1.277,1.278,0,1.28,0,0,0,0,0,0,0,0,0,0,0,0,0,0,0,0,0,0,0,0,0,0,0,0,3.524,3.512,3.512,3.501,3.489,0,3.455,3.455,3.444,3.455,3.455,3.466,3.478,3.478,3.489,3.489,3.489,3.478,3.466,3.433,3.389,3.346,3.294,3.263,3.223,3.194,3.175,3.156,3.147,3.147,3.137,3.137,3.128,3.119,3.11,3.11,3.1,3.091,3.091,3.082,3.073,3.065,3.065,3.056,3.056,3.047,3.047,3.047,3.047,3.038,3.038,3.038,3.038,3.038,3.038,0,0,0,0,0,0,2.002,2.002,2.002,2.002,1.999,1.999,1.999,1.999,1.999,1.995,1.995,1.991,1.991,1.987,1.987,1.987,1.987,1.984,1.987,1.987,1.987,1.987,1.991,1.995,1.999,1.999,2.002,2.006,2.01,2.01,2.01,2.014,2.014,2.014,2.014,2.014,2.018,2.014,2.014,2.014,2.014,2.014,2.018
2.494,2.488,2.476,2.47,2.464,2.459,2.453,2.447,2.442,2.436,2.43,2.43,2.425,2.419,2.419,2.419,2.419,2.425,2.43,2.436,2.447,2.453,2.459,2.47,2.476,2.488,2.494,2.505,2.511,2.517,2.523,2.523,2.529,2.535,2.535,2.535,2.541,2.541,2.541,2.541,2.541,2.548,2.548,2.554,2.56,2.566,2.572,2.585,2.591,2.598,2.604,2.617,2.623,2.637,2.643,2.656,2.67,2.683,2.697,2.718,2.804,2.921,3.047,3.204,3.367,3.56,3.71,3.831,3.916,3.945,3.975,3.99,4.005,4.02,4.02,4.035,4.035,4.02,4.035,4.02,4.02,4.02,4.02,4.02,4.005,4.005,4.005,4.005,3.99,3.975,3.975,3.96,3.96,3.945,3.93,3.916,3.901,3.887,3.873,3.859,3.845,3.845,3.831,3.831,3.831,3.831,3.831,3.845,3.859,3.873,3.887,3.916,3.93,3.945,3.96,3.975,3.99,4.005,4.005,4.005,4.005,4.005,4.005,3.99,3.99,3.975,3.975,3.96,3.945,3.945,3.93,3.93,3.916,3.916,3.901,3.887,3.887,3.873,3.859,3.859,3.845,3.831,3.831,3.817,3.817,3.803,3.789,3.789,3.789,3.776,0,0,0,0,0,0,0,0,0,0,0,0,0,0,0,0,0,0,0,0,0,1.269,1.265,1.263,1.26,1.257,1.253,1.25,1.247,1.245,1.244,1.242,1.241,1.241,1.241,1.239,1.238,1.238,1.237,1.235,1.235,1.234,1.234,1.232,1.232,1.231,1.231,1.231,1.231,1.231,1.232,1.232,1.234,1.234,1.234,1.232,1.231,1.229,1.227,1.224,1.219,1.215,1.21,1.206,1.2,1.193,1.187,1.18,1.175,1.168,1.163,1.158,1.154,1.15,1.147,1.143,1.141,1.138,1.136,1.133,1.131,1.128,1.127,1.126,1.125,1.124,1.121,1.12,1.119,1.118,1.115,1.113,1.111,1.109,1.108,1.107,1.106,1.105,1.105,1.105,1.105,1.106,1.106,1.107,1.107,1.107,1.107,1.107,1.107,1.106,1.106,1.106,1.106,1.106,1.106,1.107,1.107,1.107,1.107,1.107,1.107,1.107,1.107,1.107,1.107,1.106,1.107,1.108,1.108,1.107,1.107,1.107,1.107,1.107,1.107,1.106,1.106,1.107,1.108,1.108,1.108,1.108,1.109,1.111,1.112,1.112,1.111,1.109,1.109,1.109,1.108,1.108,1.108,1.108,1.109,1.109,1.111,1.111,1.112,1.112,1.112,1.112,1.112,1.111,1.109,1.109,1.109,1.109,1.108,1.108,1.108,1.109,1.111,1.111,1.112,1.112,1.112,1.112,1.112,1.112,1.112,1.112,1.112,1.113,1.114,1.114,1.115,1.118,1.119,1.12,1.121,1.122,1.122,1.124,1.124,1.124,1.124,1.124,1.124,1.125,1.125,1.126,1.127,1.13,1.132,1.134,1.138,1.142,1.144,1.148,1.153,1.159,1.167,1.173,1.181,1.189,1.197,1.207,1.215,1.224,1.231,1.238,1.244,1.25,1.254,1.257,1.26,1.262,1.265,1.265,1.266,1.266,1.268,1.268,1.268,1.268,1.268,1.268,1.268,1.268,1.269,1.269,1.269,1.271,1.272,1.274,1.274,1.275,1.275,0,1.278,0,0,0,0,0,0,0,0,0,0,0,0,0,0,0,0,0,0,0,0,0,0,0,0,0,3.512,3.512,3.501,3.489,3.489,3.478,3.466,3.455,3.455,3.455,3.466,3.478,3.478,3.489,3.489,3.501,3.489,3.478,3.455,3.422,3.378,3.346,3.294,3.253,3.223,3.194,3.165,3.147,3.147,3.137,3.137,3.128,3.119,3.119,3.11,3.1,3.1,3.091,3.082,3.073,3.065,3.065,3.065,3.056,3.047,3.047,3.047,3.038,3.038,3.029,3.029,3.029,3.021,3.021,3.021,0,0,0,0,0,0,2.01,2.01,2.006,2.006,2.002,2.002,1.999,1.999,1.999,1.999,1.995,1.991,1.991,1.987,1.987,1.987,1.984,1.984,1.984,1.984,1.984,1.987,1.991,1.991,1.995,1.999,2.002,2.006,2.01,2.01,2.014,2.014,2.014,2.014,2.014,2.014,2.014,2.014,2.01,2.01,2.01,2.01,2.01
2.494,2.482,2.476,2.47,2.464,2.459,2.453,2.447,2.442,2.436,2.43,2.425,2.425,2.419,2.419,2.419,2.419,2.425,2.43,2.436,2.442,2.453,2.459,2.47,2.476,2.488,2.494,2.499,2.505,2.517,2.517,2.523,2.529,2.529,2.535,2.535,2.541,2.541,2.541,2.548,2.548,2.554,2.56,2.56,2.566,2.572,2.579,2.591,2.598,2.604,2.611,2.617,2.623,2.637,2.643,2.656,2.67,2.69,2.697,2.725,2.827,2.953,3.091,3.253,3.433,3.621,3.776,3.887,3.93,3.96,3.99,4.005,4.02,4.02,4.02,4.035,4.02,4.035,4.02,4.02,4.02,4.02,4.02,4.005,4.005,4.005,4.005,3.99,3.99,3.975,3.975,3.96,3.945,3.945,3.93,3.916,3.901,3.887,3.873,3.859,3.859,3.845,3.831,3.831,3.831,3.831,3.845,3.845,3.859,3.873,3.887,3.916,3.93,3.945,3.96,3.975,3.975,3.99,3.99,4.005,3.99,3.99,3.99,3.99,3.975,3.96,3.96,3.96,3.945,3.93,3.93,3.916,3.916,3.901,3.887,3.887,3.873,3.873,3.859,3.845,3.845,3.831,3.831,3.817,3.817,3.803,3.803,3.803,3.789,0,0,0,0,0,0,0,0,0,0,0,0,0,0,0,0,0,0,0,0,0,0,1.269,1.268,1.265,1.262,1.26,1.256,1.251,1.25,1.247,1.245,1.244,1.244,1.242,1.242,1.241,1.241,1.239,1.238,1.237,1.237,1.235,1.235,1.234,1.234,1.232,1.232,1.232,1.232,1.234,1.234,1.234,1.235,1.235,1.235,1.234,1.232,1.229,1.227,1.224,1.219,1.215,1.211,1.206,1.2,1.193,1.188,1.181,1.176,1.17,1.164,1.159,1.155,1.152,1.148,1.144,1.142,1.139,1.137,1.134,1.132,1.13,1.128,1.127,1.126,1.124,1.122,1.12,1.119,1.118,1.116,1.114,1.112,1.111,1.108,1.107,1.106,1.106,1.105,1.105,1.106,1.106,1.107,1.107,1.107,1.107,1.107,1.107,1.107,1.107,1.107,1.107,1.107,1.107,1.108,1.108,1.108,1.107,1.107,1.107,1.107,1.107,1.107,1.107,1.107,1.107,1.108,1.108,1.109,1.108,1.108,1.108,1.108,1.108,1.107,1.106,1.106,1.107,1.109,1.109,1.109,1.109,1.111,1.112,1.112,1.112,1.112,1.109,1.109,1.109,1.108,1.108,1.108,1.108,1.109,1.111,1.112,1.112,1.112,1.113,1.113,1.113,1.112,1.111,1.111,1.109,1.109,1.109,1.109,1.108,1.108,1.109,1.111,1.111,1.112,1.112,1.112,1.112,1.112,1.112,1.112,1.112,1.112,1.112,1.113,1.113,1.115,1.116,1.118,1.12,1.121,1.121,1.122,1.124,1.124,1.124,1.125,1.124,1.124,1.125,1.126,1.127,1.128,1.13,1.133,1.136,1.139,1.143,1.147,1.15,1.155,1.162,1.168,1.175,1.183,1.191,1.199,1.207,1.215,1.224,1.231,1.238,1.244,1.25,1.254,1.257,1.26,1.263,1.265,1.266,1.266,1.268,1.268,1.268,1.268,1.268,1.268,1.268,1.268,1.268,1.268,1.269,1.271,1.272,1.272,1.274,1.274,1.274,1.275,0,1.277,1.275,0,0,0,0,0,0,0,0,0,0,0,0,0,0,0,0,0,0,0,0,0,0,0,0,3.512,3.512,3.501,3.501,3.489,3.489,3.489,3.478,3.466,3.466,3.478,3.489,3.489,3.489,3.501,3.501,3.489,3.478,3.455,3.422,3.378,3.335,3.283,3.253,3.214,3.184,3.165,3.147,3.137,3.137,3.128,3.128,3.119,3.11,3.1,3.1,3.091,3.082,3.073,3.073,3.065,3.065,3.056,3.056,3.047,3.038,3.038,3.029,3.029,3.029,3.021,3.012,3.012,3.004,3.004,0,0,0,0,0,2.022,2.014,2.014,2.01,2.01,2.006,2.002,2.002,1.999,1.999,1.995,1.995,1.991,1.987,1.987,1.984,1.984,1.984,1.98,1.98,1.98,1.98,1.984,1.987,1.991,1.995,1.999,2.002,2.006,2.01,2.01,2.01,2.014,2.014,2.014,2.01,2.01,2.01,2.01,2.006,2.006,2.002,2.002,2.002
2.488,2.482,2.476,2.47,2.464,2.453,2.447,2.442,2.436,2.436,2.43,2.425,2.419,2.419,2.414,2.414,2.414,2.419,2.425,2.436,2.442,2.447,2.459,2.47,2.476,2.482,2.494,2.499,2.505,2.511,2.517,2.523,2.529,2.529,2.535,2.535,2.541,2.541,2.548,2.548,2.554,2.56,2.56,2.566,2.572,2.579,2.585,2.591,2.604,2.611,2.617,2.623,2.63,2.643,2.65,2.663,2.677,2.69,2.704,2.725,2.842,2.978,3.128,3.294,3.478,3.671,3.831,3.916,3.96,3.975,4.005,4.005,4.02,4.02,4.035,4.035,4.035,4.035,4.02,4.02,4.02,4.02,4.02,4.005,4.005,3.99,3.99,3.99,3.99,3.975,3.96,3.96,3.945,3.945,3.93,3.916,3.901,3.887,3.873,3.873,3.859,3.845,3.845,3.831,3.831,3.845,3.845,3.859,3.859,3.873,3.887,3.901,3.916,3.93,3.945,3.96,3.96,3.975,3.975,3.975,3.975,3.975,3.975,3.96,3.96,3.96,3.945,3.945,3.93,3.916,3.916,3.916,3.901,3.901,3.887,3.873,3.873,3.859,3.859,3.845,3.845,3.831,3.831,3.831,3.817,3.817,3.817,3.803,3.803,0,0,0,0,0,0,0,0,0,0,0,0,0,0,0,0,0,0,0,0,0,1.275,1.272,1.269,1.268,1.265,1.262,1.257,1.254,1.251,1.25,1.247,1.247,1.245,1.245,1.244,1.244,1.242,1.241,1.241,1.239,1.239,1.238,1.238,1.237,1.235,1.235,1.235,1.235,1.235,1.235,1.235,1.237,1.237,1.237,1.237,1.235,1.234,1.231,1.228,1.224,1.219,1.215,1.211,1.206,1.2,1.195,1.188,1.183,1.177,1.172,1.167,1.162,1.158,1.153,1.149,1.147,1.143,1.141,1.137,1.134,1.132,1.13,1.128,1.127,1.126,1.124,1.122,1.12,1.12,1.118,1.116,1.114,1.113,1.111,1.109,1.108,1.107,1.106,1.106,1.106,1.106,1.107,1.107,1.107,1.107,1.107,1.107,1.108,1.108,1.108,1.108,1.108,1.108,1.108,1.108,1.108,1.108,1.108,1.108,1.108,1.108,1.108,1.108,1.108,1.107,1.107,1.108,1.108,1.109,1.108,1.108,1.108,1.108,1.108,1.108,1.107,1.106,1.108,1.109,1.111,1.111,1.111,1.112,1.112,1.112,1.112,1.111,1.109,1.109,1.109,1.109,1.108,1.108,1.109,1.111,1.112,1.112,1.112,1.113,1.113,1.114,1.113,1.113,1.111,1.111,1.109,1.109,1.109,1.109,1.108,1.108,1.109,1.111,1.111,1.112,1.112,1.112,1.112,1.112,1.112,1.112,1.112,1.112,1.112,1.112,1.114,1.115,1.116,1.118,1.12,1.121,1.122,1.122,1.124,1.125,1.125,1.125,1.124,1.125,1.125,1.126,1.127,1.128,1.131,1.134,1.137,1.141,1.144,1.148,1.153,1.158,1.166,1.172,1.177,1.185,1.192,1.2,1.207,1.215,1.224,1.231,1.238,1.244,1.25,1.254,1.259,1.262,1.265,1.266,1.268,1.268,1.268,1.269,1.269,1.269,1.268,1.268,1.268,1.268,1.268,1.269,1.271,1.271,1.272,1.274,1.274,1.274,1.275,1.275,0,1.277,0,0,0,0,0,0,0,0,0,0,0,0,0,0,0,0,0,0,0,0,0,0,0,0,0,0,3.512,3.512,3.512,3.501,3.501,3.501,3.489,3.489,3.478,3.478,3.489,3.489,3.501,3.512,3.501,3.489,3.478,3.444,3.422,3.367,3.325,3.283,3.243,3.204,3.175,3.156,3.147,3.137,3.128,3.128,3.119,3.119,3.11,3.1,3.091,3.082,3.082,3.073,3.065,3.065,3.056,3.056,3.047,3.047,3.038,3.029,3.029,3.021,3.012,3.004,3.004,2.995,2.995,2.995,0,0,0,0,0,2.025,2.022,2.018,2.018,2.014,2.01,2.006,2.002,1.999,1.999,1.995,1.991,1.991,1.987,1.984,1.984,1.98,1.98,1.98,1.98,1.98,1.98,1.984,1.987,1.991,1.995,1.999,2.002,2.006,2.006,2.01,2.01,2.01,2.01,2.01,2.01,2.006,2.006,2.006,2.002,2.002,1.999,1.999,1.995
2.488,2.482,2.476,2.464,2.459,2.453,2.447,2.442,2.436,2.43,2.43,2.425,2.419,2.414,2.414,2.408,2.414,2.419,2.425,2.43,2.436,2.447,2.459,2.464,2.476,2.482,2.494,2.499,2.505,2.511,2.517,2.523,2.529,2.529,2.535,2.535,2.541,2.541,2.548,2.554,2.56,2.56,2.566,2.572,2.579,2.585,2.591,2.598,2.604,2.617,2.623,2.63,2.637,2.65,2.656,2.67,2.683,2.697,2.711,2.746,2.865,3.012,0,0,3.536,3.736,3.873,3.945,3.96,3.99,4.005,4.02,4.02,4.035,4.02,4.035,4.035,4.02,4.02,4.02,4.02,4.02,4.005,4.005,4.005,3.99,3.99,3.99,3.975,3.975,3.96,3.945,3.945,3.93,3.93,3.916,3.901,3.887,3.873,3.873,3.859,3.859,3.845,3.845,3.845,3.845,3.845,3.859,3.873,3.873,3.887,3.901,3.916,3.93,3.93,3.945,3.945,3.96,3.96,3.96,3.96,3.96,3.945,3.945,3.945,3.945,3.93,3.93,3.916,3.916,3.916,3.901,3.901,3.887,3.887,3.873,3.859,3.859,3.845,3.845,3.845,3.845,3.831,3.831,3.831,3.817,3.817,3.817,3.817,3.817,0,0,0,0,0,0,0,0,0,0,0,0,0,0,0,0,0,0,0,0,1.277,1.274,1.272,1.269,1.266,1.263,1.26,1.256,1.254,1.251,1.25,1.248,1.248,1.247,1.247,1.245,1.244,1.244,1.242,1.242,1.241,1.241,1.239,1.239,1.238,1.238,1.238,1.237,1.237,1.238,1.238,1.238,1.238,1.238,1.237,1.237,1.234,1.231,1.228,1.225,1.221,1.217,1.211,1.206,1.2,1.195,1.189,1.184,1.179,1.173,1.168,1.163,1.159,1.154,1.15,1.148,1.144,1.142,1.138,1.136,1.133,1.131,1.13,1.128,1.126,1.124,1.122,1.121,1.12,1.119,1.118,1.115,1.113,1.112,1.111,1.109,1.108,1.107,1.106,1.106,1.107,1.107,1.107,1.107,1.107,1.107,1.108,1.108,1.108,1.108,1.108,1.109,1.109,1.109,1.109,1.109,1.109,1.109,1.108,1.108,1.108,1.108,1.108,1.108,1.108,1.108,1.109,1.111,1.111,1.109,1.109,1.109,1.108,1.109,1.108,1.108,1.107,1.108,1.109,1.111,1.111,1.112,1.112,1.112,1.113,1.113,1.112,1.111,1.109,1.109,1.109,1.108,1.108,1.109,1.111,1.111,1.112,1.112,1.113,1.114,1.114,1.114,1.113,1.112,1.111,1.109,1.109,1.109,1.108,1.108,1.108,1.109,1.111,1.111,1.112,1.112,1.112,1.112,1.112,1.112,1.112,1.112,1.111,1.111,1.112,1.113,1.114,1.115,1.118,1.119,1.12,1.122,1.124,1.124,1.125,1.125,1.125,1.125,1.125,1.126,1.127,1.128,1.13,1.132,1.136,1.139,1.143,1.147,1.15,1.155,1.161,1.168,1.173,1.179,1.185,1.193,1.2,1.207,1.215,1.222,1.229,1.237,1.244,1.25,1.254,1.259,1.262,1.265,1.268,1.268,1.269,1.269,1.269,1.271,1.271,1.269,1.269,1.269,1.269,1.271,1.271,1.272,1.272,1.275,1.275,1.275,1.275,1.275,1.275,1.275,0,0,0,0,0,0,0,0,0,0,0,0,0,0,0,0,0,0,0,0,0,0,0,0,0,0,0,3.512,3.512,3.501,3.501,3.501,3.501,3.501,3.489,3.489,3.489,3.489,3.501,3.512,3.512,3.512,3.501,3.478,3.455,3.41,3.367,3.325,3.273,3.233,3.204,3.175,3.156,3.137,3.137,3.128,3.119,3.119,3.119,3.11,3.1,3.091,3.082,3.073,3.073,3.073,3.065,3.065,3.056,3.047,3.047,3.038,3.029,3.021,3.012,3.004,2.995,2.995,2.987,2.978,2.978,0,0,0,0,0,2.033,2.025,2.022,2.022,2.018,2.014,2.006,2.002,1.999,1.995,1.991,1.991,1.987,1.984,1.984,1.98,1.98,1.976,1.976,1.976,1.976,1.98,1.98,1.984,1.987,1.991,1.995,1.999,2.002,2.006,2.006,2.006,2.006,2.01,2.006,2.006,2.002,2.002,1.999,1.999,1.995,1.995,1.991,1.991
2.488,2.482,2.476,2.464,2.459,2.453,2.447,2.442,2.436,2.43,2.425,2.419,2.414,2.414,2.408,2.408,2.408,2.414,2.419,2.43,2.436,2.442,2.453,2.464,2.47,2.482,2.494,2.499,2.505,2.511,2.517,2.523,2.529,2.535,2.535,2.541,2.541,2.548,2.548,2.554,2.56,2.566,2.572,2.579,2.585,2.591,2.598,2.604,2.611,2.617,2.63,2.637,2.643,2.656,2.663,2.677,2.69,2.704,2.732,2.782,2.905,3.056,0,0,3.584,3.789,3.916,3.96,3.975,3.99,4.005,4.02,4.02,4.02,4.02,4.035,4.035,4.02,4.02,4.02,4.02,4.02,4.02,4.005,4.005,3.99,3.99,3.99,3.975,3.96,3.96,3.945,3.945,3.93,3.93,3.916,3.901,3.887,3.873,3.873,3.859,3.859,3.845,3.845,3.845,3.845,3.859,3.859,3.873,3.873,3.887,3.901,3.901,3.916,3.93,3.93,3.93,3.945,3.93,3.93,3.93,3.93,3.93,3.916,3.916,3.916,3.916,3.901,3.901,3.901,3.901,3.901,3.887,3.887,3.873,3.873,3.859,3.859,3.845,3.845,3.845,3.845,3.845,3.831,3.831,3.831,3.831,3.831,3.831,3.831,0,0,0,0,0,0,0,0,0,0,0,0,0,0,0,0,0,0,0,0,1.277,1.275,1.272,1.271,1.268,1.265,1.262,1.259,1.256,1.254,1.253,1.251,1.25,1.248,1.248,1.247,1.247,1.245,1.244,1.244,1.242,1.242,1.241,1.241,1.239,1.239,1.239,1.239,1.239,1.239,1.239,1.239,1.239,1.239,1.238,1.237,1.235,1.232,1.229,1.225,1.221,1.217,1.212,1.207,1.201,1.196,1.191,1.185,1.18,1.175,1.17,1.166,1.162,1.157,1.153,1.149,1.147,1.143,1.141,1.138,1.134,1.132,1.13,1.128,1.127,1.125,1.122,1.121,1.12,1.119,1.118,1.115,1.114,1.113,1.111,1.109,1.108,1.107,1.106,1.106,1.106,1.106,1.106,1.106,1.107,1.107,1.108,1.108,1.108,1.109,1.109,1.109,1.109,1.109,1.111,1.111,1.111,1.111,1.109,1.109,1.109,1.109,1.109,1.109,1.109,1.109,1.109,1.111,1.111,1.111,1.109,1.109,1.111,1.109,1.109,1.108,1.108,1.109,1.111,1.111,1.111,1.112,1.112,1.113,1.113,1.113,1.112,1.111,1.111,1.111,1.109,1.108,1.108,1.109,1.111,1.111,1.112,1.112,1.113,1.114,1.114,1.114,1.113,1.112,1.111,1.109,1.109,1.108,1.108,1.108,1.108,1.108,1.109,1.111,1.112,1.112,1.112,1.112,1.112,1.111,1.112,1.112,1.111,1.111,1.112,1.113,1.114,1.115,1.118,1.119,1.12,1.121,1.124,1.125,1.125,1.125,1.125,1.125,1.125,1.126,1.127,1.13,1.131,1.133,1.137,1.141,1.144,1.149,1.153,1.158,1.163,1.17,1.175,1.18,1.187,1.193,1.2,1.207,1.214,1.222,1.229,1.237,1.244,1.25,1.256,1.26,1.263,1.266,1.269,1.271,1.271,1.272,1.272,1.272,1.271,1.272,1.272,1.272,1.272,1.272,1.272,1.274,1.275,1.278,1.278,1.278,1.278,1.28,1.28,1.278,0,0,0,0,0,0,0,0,0,0,0,0,0,0,0,0,0,0,0,0,0,0,0,0,0,0,0,0,0,3.501,3.501,3.501,3.501,3.501,3.489,3.489,3.489,3.501,3.512,3.524,3.524,3.512,3.501,3.489,3.455,3.41,3.367,3.314,3.263,3.233,3.204,3.165,3.147,3.137,3.128,3.128,3.128,3.119,3.119,3.11,3.1,3.091,3.082,3.082,3.082,3.073,3.065,3.065,3.056,3.056,3.047,3.038,3.029,3.021,3.012,2.995,2.995,2.987,2.978,2.97,2.961,2.961,0,0,0,0,0,2.029,2.025,2.022,2.018,2.014,2.006,2.002,1.995,1.991,1.987,1.987,1.984,1.98,1.98,1.976,1.976,1.972,1.972,1.972,1.972,1.976,1.976,1.98,1.984,1.987,1.991,1.995,1.999,1.999,2.002,2.002,2.002,2.002,1.999,1.999,1.999,1.995,1.991,1.991,1.987,1.987,1.984,1.984
2.488,2.482,2.476,2.464,2.459,2.453,2.447,2.442,2.436,2.43,2.425,2.419,2.414,2.414,2.408,2.408,2.408,2.414,2.419,2.425,2.436,2.442,2.453,2.464,2.47,2.482,2.494,2.499,2.511,2.517,2.517,2.523,2.529,2.535,2.541,2.541,2.541,2.548,2.554,2.56,2.566,2.566,2.579,2.585,2.591,2.598,2.604,2.611,2.617,2.623,2.63,2.643,2.65,2.663,2.677,2.697,2.704,2.725,2.753,2.819,2.953,3.1,0,0,3.633,3.831,3.945,3.975,3.99,3.99,4.005,4.02,4.02,4.02,4.035,4.035,4.02,4.02,4.02,4.02,4.02,4.02,4.02,4.005,4.005,3.99,3.99,3.99,3.975,3.96,3.945,3.945,3.93,3.93,3.916,3.916,3.901,3.887,3.873,3.873,3.859,3.859,3.859,3.859,3.845,3.859,3.859,3.859,3.873,3.873,3.887,3.887,3.901,3.901,3.916,3.916,3.916,3.916,3.916,3.916,3.916,3.916,3.916,3.916,3.916,3.901,3.901,3.901,3.887,3.887,3.887,3.887,3.887,3.873,3.873,3.859,3.859,3.845,3.845,3.845,3.845,3.845,3.845,3.845,3.845,3.845,3.845,3.845,3.845,3.845,0,0,0,0,0,0,0,0,0,0,0,0,0,0,0,0,0,0,0,0,1.278,1.275,1.274,1.272,1.271,1.266,1.263,1.262,1.259,1.257,1.256,1.253,1.251,1.251,1.25,1.248,1.247,1.245,1.245,1.244,1.244,1.244,1.242,1.242,1.242,1.241,1.241,1.241,1.241,1.241,1.241,1.241,1.241,1.241,1.239,1.238,1.237,1.234,1.231,1.228,1.222,1.218,1.214,1.208,1.203,1.196,1.191,1.185,1.181,1.176,1.171,1.167,1.163,1.158,1.154,1.15,1.148,1.144,1.142,1.139,1.136,1.133,1.131,1.13,1.127,1.125,1.124,1.122,1.121,1.12,1.118,1.116,1.115,1.113,1.112,1.111,1.108,1.107,1.107,1.106,1.106,1.106,1.106,1.106,1.107,1.107,1.108,1.108,1.109,1.109,1.111,1.111,1.111,1.111,1.112,1.112,1.112,1.111,1.111,1.111,1.111,1.111,1.111,1.109,1.109,1.109,1.111,1.111,1.111,1.111,1.111,1.111,1.111,1.111,1.109,1.109,1.108,1.111,1.111,1.111,1.112,1.112,1.112,1.113,1.113,1.113,1.112,1.112,1.111,1.111,1.109,1.109,1.109,1.109,1.111,1.111,1.111,1.111,1.112,1.113,1.114,1.113,1.112,1.111,1.111,1.109,1.108,1.108,1.108,1.108,1.107,1.108,1.109,1.111,1.111,1.112,1.112,1.111,1.111,1.111,1.112,1.112,1.111,1.111,1.112,1.113,1.114,1.115,1.118,1.119,1.12,1.121,1.124,1.125,1.125,1.125,1.125,1.125,1.126,1.127,1.128,1.13,1.132,1.136,1.138,1.142,1.147,1.152,1.155,1.162,1.166,1.172,1.177,1.181,1.188,1.193,1.2,1.207,1.214,1.222,1.229,1.237,1.244,1.251,1.256,1.262,1.266,1.269,1.271,1.272,1.272,1.274,1.274,1.274,1.274,1.274,1.274,1.274,1.275,1.275,1.277,1.278,1.28,1.282,1.28,1.282,1.28,0,1.28,1.278,1.277,0,0,0,0,0,0,0,0,0,0,0,0,0,0,0,0,0,0,0,0,0,0,0,0,0,0,0,3.512,3.512,3.501,3.501,3.512,3.501,3.512,3.501,3.501,3.512,3.524,3.524,3.524,3.524,3.512,3.489,3.455,3.41,3.356,3.314,3.263,3.223,3.194,3.165,3.147,3.137,3.137,3.128,3.128,3.128,3.119,3.11,3.1,3.1,3.091,3.091,3.082,3.082,3.073,3.065,3.065,3.056,3.047,3.038,3.029,3.021,3.012,2.995,2.987,2.978,2.97,2.961,2.953,2.953,0,0,0,0,0,2.033,2.029,2.025,2.018,2.014,2.006,1.999,1.991,1.987,1.984,1.98,1.98,1.976,1.972,1.972,1.972,1.969,1.969,1.969,1.969,1.969,1.972,1.976,1.98,1.984,1.987,1.991,1.991,1.995,1.995,1.995,1.991,1.991,1.991,1.991,1.987,1.984,1.984,1.98,1.98,1.976,1.976,1.972
2.494,2.488,2.476,2.47,2.464,2.459,2.453,2.447,2.436,2.43,2.425,2.419,2.414,2.408,2.408,2.403,2.408,2.408,2.414,2.425,2.43,2.442,2.453,2.459,2.47,2.482,2.494,2.499,2.511,2.517,2.523,2.529,2.535,2.535,2.541,2.541,2.548,2.554,2.554,2.56,2.566,2.572,2.579,2.585,2.591,2.598,2.611,2.617,2.623,2.63,2.637,2.65,2.656,2.67,2.69,2.704,2.718,2.746,2.79,2.865,3.012,3.156,0,0,3.684,3.859,3.96,3.975,3.99,4.005,4.005,4.02,4.02,4.035,4.035,4.02,4.02,4.02,4.035,4.02,4.02,4.02,4.02,4.005,4.005,3.99,3.99,3.975,3.975,3.96,3.945,3.945,3.93,3.93,3.916,3.901,3.901,3.887,3.873,3.873,3.859,3.859,3.859,3.859,3.859,3.859,3.859,3.859,3.873,3.873,3.887,3.887,3.887,3.887,3.901,3.901,3.901,3.901,3.901,3.901,3.901,3.901,3.901,3.901,3.887,3.887,3.887,3.887,3.873,3.873,3.873,3.873,3.873,3.873,3.859,3.859,3.859,3.845,3.845,3.845,3.845,3.845,3.845,3.845,3.859,3.859,3.859,3.873,3.873,3.873,3.873,0,0,0,0,0,0,0,0,0,0,0,0,0,0,0,0,0,0,0,1.28,1.277,1.275,1.274,1.272,1.269,1.266,1.265,1.262,1.26,1.259,1.256,1.254,1.253,1.251,1.25,1.248,1.247,1.247,1.245,1.244,1.244,1.244,1.244,1.244,1.244,1.242,1.242,1.242,1.242,1.242,1.242,1.242,1.242,1.241,1.241,1.238,1.237,1.234,1.229,1.225,1.219,1.214,1.21,1.204,1.197,1.192,1.187,1.183,1.177,1.172,1.168,1.164,1.161,1.155,1.153,1.149,1.145,1.143,1.141,1.137,1.134,1.132,1.13,1.127,1.126,1.124,1.122,1.121,1.12,1.119,1.118,1.115,1.114,1.112,1.111,1.109,1.108,1.107,1.106,1.106,1.105,1.105,1.106,1.106,1.107,1.108,1.108,1.109,1.111,1.111,1.112,1.112,1.112,1.112,1.112,1.112,1.112,1.111,1.111,1.111,1.112,1.111,1.111,1.109,1.111,1.111,1.111,1.111,1.111,1.111,1.111,1.111,1.111,1.111,1.109,1.109,1.111,1.111,1.112,1.112,1.112,1.113,1.113,1.113,1.113,1.112,1.112,1.112,1.111,1.109,1.109,1.109,1.109,1.109,1.109,1.111,1.111,1.112,1.113,1.113,1.113,1.112,1.111,1.111,1.109,1.108,1.108,1.108,1.108,1.107,1.108,1.109,1.111,1.111,1.111,1.111,1.111,1.112,1.112,1.112,1.111,1.111,1.111,1.111,1.112,1.114,1.115,1.116,1.118,1.12,1.121,1.124,1.125,1.125,1.125,1.125,1.125,1.126,1.127,1.128,1.13,1.133,1.136,1.139,1.143,1.147,1.152,1.157,1.162,1.167,1.173,1.177,1.183,1.189,1.195,1.201,1.208,1.215,1.224,1.231,1.238,1.247,1.253,1.259,1.263,1.268,1.271,1.272,1.274,1.275,1.275,1.277,1.277,1.277,1.277,1.277,1.277,1.278,1.278,1.28,1.28,1.283,1.285,1.285,1.283,0,1.285,1.283,1.282,0,0,0,0,0,0,0,0,0,0,0,0,0,0,0,0,0,0,0,0,0,0,0,0,0,0,0,0,0,3.524,3.524,3.512,3.524,3.512,3.512,3.512,3.512,3.524,3.524,3.524,3.524,3.512,3.501,3.489,3.444,3.4,3.346,3.304,3.263,3.223,3.194,3.165,3.147,3.137,3.137,3.137,3.128,3.128,3.128,3.119,3.11,3.11,3.1,3.1,3.091,3.082,3.082,3.073,3.065,3.065,3.056,3.047,3.029,3.021,3.012,2.995,2.987,2.97,2.961,2.953,2.945,2.945,0,0,0,0,0,2.037,2.029,2.025,2.018,2.014,2.006,1.995,1.987,1.984,1.98,1.976,1.972,1.972,1.969,1.965,1.965,1.965,1.965,1.965,1.965,1.965,1.969,1.969,1.972,1.976,1.98,1.98,1.984,1.984,1.984,1.984,1.984,1.98,1.98,1.98,1.976,1.976,1.972,1.972,1.969,1.969,1.965,1.965
2.499,2.488,2.482,2.47,2.464,2.459,2.453,2.447,2.436,2.43,2.425,2.419,2.414,2.408,2.408,2.403,2.408,2.408,2.414,2.425,2.43,2.436,2.447,2.459,2.47,2.482,2.494,2.499,2.511,2.517,2.523,2.529,2.535,2.541,2.541,2.548,2.554,2.554,2.56,2.566,2.572,2.579,2.585,2.591,2.598,2.604,2.611,2.623,2.63,2.637,2.643,2.656,2.67,2.69,2.704,2.732,2.753,2.79,2.857,2.945,3.082,3.243,0,3.572,3.723,3.887,3.975,3.99,3.99,4.005,4.02,4.02,4.02,4.035,4.02,4.02,4.035,4.035,4.035,4.035,4.02,4.02,4.02,4.005,4.005,3.99,3.99,3.975,3.96,3.96,3.945,3.945,3.93,3.93,3.916,3.901,3.901,3.887,3.873,3.873,3.859,3.859,3.859,3.859,3.859,3.859,3.859,3.859,3.873,3.873,3.873,3.887,3.887,3.887,3.887,3.901,3.901,3.901,3.887,3.887,3.887,3.887,3.887,3.873,3.873,3.873,3.873,3.873,3.873,3.873,3.873,3.873,3.859,3.859,3.859,3.845,3.845,3.845,3.845,3.845,3.845,3.845,3.859,3.859,3.859,3.873,3.873,3.873,3.887,3.887,3.887,0,0,0,0,0,0,0,0,0,0,0,0,0,0,0,0,0,0,0,1.28,1.277,1.277,1.274,1.274,1.271,1.268,1.266,1.265,1.263,1.262,1.259,1.257,1.256,1.254,1.253,1.251,1.25,1.248,1.247,1.247,1.245,1.245,1.245,1.245,1.245,1.245,1.245,1.245,1.245,1.245,1.245,1.245,1.244,1.244,1.242,1.241,1.238,1.235,1.232,1.228,1.222,1.217,1.211,1.206,1.2,1.193,1.189,1.184,1.179,1.175,1.17,1.166,1.161,1.157,1.153,1.15,1.147,1.144,1.141,1.138,1.134,1.132,1.13,1.127,1.126,1.124,1.122,1.121,1.12,1.119,1.118,1.115,1.114,1.112,1.111,1.109,1.108,1.107,1.106,1.106,1.105,1.105,1.105,1.106,1.107,1.107,1.108,1.109,1.111,1.111,1.112,1.112,1.113,1.113,1.113,1.112,1.112,1.112,1.112,1.112,1.112,1.111,1.111,1.111,1.112,1.112,1.112,1.111,1.111,1.111,1.111,1.111,1.111,1.111,1.109,1.111,1.112,1.112,1.112,1.112,1.113,1.113,1.113,1.113,1.113,1.113,1.112,1.112,1.111,1.109,1.109,1.109,1.109,1.109,1.109,1.111,1.111,1.111,1.112,1.112,1.112,1.111,1.111,1.111,1.109,1.108,1.108,1.108,1.108,1.108,1.108,1.109,1.111,1.111,1.111,1.111,1.111,1.112,1.112,1.112,1.112,1.111,1.111,1.111,1.112,1.114,1.115,1.115,1.118,1.12,1.121,1.124,1.124,1.125,1.126,1.126,1.126,1.126,1.127,1.128,1.131,1.133,1.137,1.139,1.143,1.148,1.153,1.158,1.163,1.168,1.175,1.18,1.184,1.191,1.197,1.204,1.211,1.218,1.227,1.234,1.242,1.25,1.256,1.262,1.266,1.271,1.274,1.275,1.277,1.278,1.278,1.28,1.28,1.28,1.28,1.28,1.282,1.282,1.283,1.285,1.285,1.286,1.288,1.288,1.288,0,0,1.286,1.283,0,0,0,0,0,0,0,0,0,0,0,0,0,0,0,0,0,0,0,0,0,0,0,0,0,0,0,0,0,0,0,0,0,3.524,3.524,3.512,3.512,3.512,3.524,3.524,3.524,3.501,3.489,3.478,3.433,3.4,3.346,3.304,3.253,3.223,3.194,3.165,3.147,3.137,3.137,3.137,3.137,3.128,3.128,3.128,3.119,3.119,3.11,3.11,3.1,3.091,3.091,3.082,3.073,3.065,3.056,3.047,3.038,3.021,3.004,2.987,2.978,2.961,2.953,2.945,2.937,2.929,0,0,0,0,0,2.061,2.045,2.025,2.022,2.014,2.002,1.991,1.984,1.98,1.976,1.972,1.969,1.965,1.962,1.962,1.958,1.958,1.958,1.958,1.958,1.958,1.962,1.962,1.965,1.965,1.969,1.969,1.972,1.972,1.972,1.972,1.972,1.969,1.969,1.965,1.965,1.965,1.962,1.962,1.962,1.958,1.958,1.958
2.505,2.494,2.488,2.476,2.464,2.459,2.453,2.447,2.442,2.43,2.425,2.419,2.414,2.408,2.408,2.408,2.408,2.408,2.414,2.425,2.43,2.436,2.447,2.459,2.47,2.482,2.488,2.499,2.511,2.517,2.523,2.535,2.541,2.548,2.548,2.548,2.554,2.56,2.56,2.566,2.572,2.579,2.585,2.591,2.598,2.604,2.617,2.623,2.63,2.643,2.65,2.67,2.69,2.718,2.746,2.782,2.812,2.865,2.945,3.047,3.194,3.325,3.478,3.621,3.776,3.901,3.975,3.99,4.005,4.005,4.02,4.02,4.035,4.035,4.035,4.035,4.035,4.035,4.035,4.035,4.02,4.02,4.02,4.005,4.005,3.99,3.99,3.975,3.96,3.96,3.945,3.945,3.93,3.93,3.916,3.901,3.901,3.887,3.873,3.873,3.873,3.859,3.859,3.859,3.859,3.859,3.859,3.873,3.873,3.873,3.873,3.887,3.887,3.887,3.887,3.887,3.887,3.887,3.887,3.887,3.887,3.887,3.873,3.873,3.873,3.873,3.859,3.859,3.859,3.859,3.859,3.859,3.859,3.859,3.845,3.845,3.845,3.845,3.831,3.831,3.845,3.845,3.859,3.859,3.873,3.873,3.887,3.901,3.901,3.901,3.916,3.916,0,0,0,0,0,0,0,0,0,0,0,0,0,0,0,0,0,0,1.278,1.278,1.277,1.275,1.274,1.272,1.271,1.269,1.268,1.266,1.263,1.262,1.259,1.257,1.256,1.254,1.253,1.251,1.25,1.248,1.248,1.248,1.248,1.247,1.247,1.247,1.247,1.247,1.247,1.248,1.248,1.247,1.247,1.247,1.245,1.245,1.242,1.241,1.238,1.234,1.229,1.225,1.219,1.214,1.208,1.201,1.196,1.191,1.185,1.18,1.176,1.171,1.167,1.163,1.158,1.154,1.152,1.148,1.145,1.142,1.139,1.136,1.133,1.131,1.128,1.126,1.124,1.122,1.121,1.12,1.119,1.118,1.115,1.114,1.113,1.111,1.109,1.108,1.107,1.106,1.106,1.105,1.105,1.105,1.106,1.107,1.107,1.108,1.109,1.111,1.111,1.112,1.113,1.113,1.114,1.113,1.112,1.112,1.112,1.112,1.112,1.112,1.112,1.111,1.111,1.112,1.112,1.112,1.111,1.111,1.111,1.111,1.111,1.111,1.111,1.111,1.111,1.112,1.112,1.112,1.112,1.113,1.113,1.113,1.113,1.113,1.113,1.112,1.112,1.111,1.109,1.109,1.108,1.108,1.109,1.109,1.109,1.111,1.111,1.111,1.111,1.111,1.111,1.111,1.111,1.109,1.109,1.109,1.109,1.108,1.108,1.108,1.109,1.109,1.111,1.111,1.111,1.112,1.112,1.112,1.113,1.112,1.112,1.111,1.112,1.113,1.114,1.115,1.115,1.118,1.12,1.121,1.124,1.125,1.125,1.126,1.126,1.127,1.127,1.128,1.13,1.132,1.134,1.138,1.141,1.144,1.149,1.154,1.159,1.164,1.17,1.175,1.18,1.187,1.193,1.2,1.207,1.215,1.222,1.231,1.238,1.247,1.254,1.26,1.265,1.269,1.274,1.277,1.278,1.278,1.28,1.282,1.282,1.283,1.283,1.283,1.283,1.285,1.285,1.286,1.288,1.289,1.291,1.292,1.292,1.292,1.292,1.294,0,0,0,0,0,0,0,0,0,0,0,0,0,0,0,0,0,0,0,0,0,0,0,0,0,0,0,0,0,0,0,0,0,0,0,3.536,3.524,3.512,3.501,3.512,3.512,3.512,3.512,3.501,3.489,3.466,3.433,3.389,3.346,3.304,3.263,3.223,3.194,3.165,3.147,3.137,3.137,3.137,3.137,3.137,3.137,3.128,3.128,3.119,3.119,3.11,3.11,3.1,3.1,3.091,3.082,3.073,3.065,3.056,3.038,3.021,3.004,2.995,2.978,2.961,2.945,2.945,2.929,2.913,2.921,0,0,0,0,0,0,2.025,2.018,2.014,2.002,1.987,1.98,1.972,1.969,1.962,1.958,1.958,1.954,1.951,1.951,1.951,1.951,1.951,1.951,1.951,1.951,1.954,1.954,1.958,1.958,1.958,1.958,1.958,1.958,1.958,1.954,1.954,1.954,1.954,1.951,1.951,1.951,1.951,1.951,1.951,1.947,1.947
2.517,2.505,2.494,2.482,2.47,2.464,2.453,2.447,2.442,2.43,2.425,2.419,2.414,2.408,2.408,2.408,2.408,2.414,2.419,2.425,2.43,2.436,2.447,2.459,2.47,2.482,2.494,2.505,2.511,2.523,2.529,2.535,2.541,2.548,2.554,2.554,2.56,2.56,2.566,2.572,2.579,2.585,2.585,2.591,2.604,2.611,2.617,2.63,2.637,2.65,2.677,2.697,2.732,2.768,2.812,2.857,2.905,2.97,3.065,3.165,3.294,3.422,3.548,3.671,3.803,3.916,3.975,3.99,4.005,4.02,4.035,4.02,4.035,4.035,4.035,4.035,4.035,4.035,4.035,4.035,4.035,4.02,4.02,4.005,4.005,3.99,3.99,3.975,3.96,3.96,3.945,3.945,3.93,3.93,3.916,3.901,3.901,3.887,3.887,3.873,3.873,3.873,3.873,3.873,3.873,3.873,3.873,3.873,3.873,3.873,3.887,3.887,3.887,3.887,3.887,3.887,3.887,3.887,3.887,3.873,3.873,3.873,3.873,3.873,3.859,3.859,3.859,3.859,3.859,3.859,3.859,3.859,3.845,3.845,3.845,3.845,3.845,3.845,3.831,3.845,3.845,3.845,3.859,3.859,3.873,3.887,3.901,3.901,3.916,3.93,3.93,3.93,0,0,0,0,0,0,0,0,0,0,0,0,0,0,0,0,0,0,1.278,1.277,1.277,1.275,1.275,1.274,1.272,1.271,1.269,1.268,1.266,1.263,1.262,1.26,1.259,1.256,1.254,1.253,1.251,1.25,1.25,1.25,1.25,1.25,1.25,1.25,1.25,1.25,1.25,1.25,1.25,1.25,1.25,1.25,1.248,1.247,1.245,1.244,1.241,1.237,1.232,1.228,1.222,1.217,1.211,1.204,1.199,1.193,1.187,1.181,1.177,1.173,1.17,1.166,1.162,1.158,1.153,1.15,1.147,1.144,1.141,1.137,1.134,1.131,1.128,1.126,1.125,1.122,1.122,1.12,1.119,1.118,1.116,1.114,1.113,1.112,1.109,1.108,1.107,1.106,1.106,1.105,1.105,1.106,1.106,1.107,1.107,1.108,1.109,1.111,1.111,1.112,1.113,1.113,1.114,1.114,1.113,1.112,1.112,1.112,1.112,1.112,1.112,1.112,1.112,1.112,1.112,1.112,1.111,1.111,1.111,1.111,1.111,1.111,1.111,1.111,1.111,1.112,1.112,1.112,1.112,1.112,1.113,1.113,1.113,1.113,1.113,1.112,1.112,1.111,1.109,1.109,1.108,1.108,1.108,1.108,1.109,1.109,1.111,1.111,1.111,1.111,1.111,1.111,1.111,1.111,1.111,1.109,1.109,1.109,1.109,1.109,1.109,1.109,1.111,1.111,1.111,1.111,1.112,1.112,1.113,1.113,1.112,1.112,1.113,1.113,1.114,1.116,1.116,1.118,1.12,0,1.124,1.125,1.125,1.126,1.127,1.127,1.128,1.13,1.131,1.133,1.137,1.139,1.143,1.145,1.15,1.155,1.159,1.166,1.17,1.176,1.181,1.189,1.196,1.204,1.212,1.219,1.229,1.237,1.244,1.251,1.259,1.265,1.269,1.274,1.277,1.278,1.282,1.282,1.282,1.283,1.285,1.285,1.285,1.286,1.286,1.288,1.289,1.291,1.292,1.294,1.296,1.297,1.297,0,1.299,1.299,0,0,0,0,0,0,0,0,0,0,0,0,0,0,0,0,0,0,0,0,0,0,0,0,0,0,0,0,0,0,0,0,0,0,0,0,3.501,3.489,3.489,3.489,3.489,3.489,3.489,3.478,3.466,3.455,3.422,3.389,3.346,3.294,3.263,3.223,3.194,3.165,3.156,3.147,3.147,3.137,3.137,3.137,3.137,3.137,3.128,3.128,3.128,3.119,3.119,3.11,3.1,3.1,3.091,3.082,3.065,3.056,3.038,3.029,3.012,2.995,2.978,2.961,2.953,2.945,2.929,2.913,2.905,0,0,0,0,0,0,2.022,2.01,2.006,1.995,1.984,1.972,1.969,1.958,1.954,1.951,1.947,1.943,1.943,1.94,1.94,1.94,1.94,1.94,1.94,1.943,1.94,1.943,1.943,1.943,1.943,1.943,1.943,1.943,1.943,1.94,1.94,1.94,1.94,1.94,1.94,1.94,1.94,1.94,1.94,1.936,1.936
2.523,2.511,2.499,2.482,2.476,2.464,2.459,2.447,2.442,2.43,2.425,2.419,2.414,2.414,2.408,2.408,2.408,2.414,2.419,2.425,2.43,2.442,2.447,2.459,2.47,2.482,2.494,2.505,2.517,2.523,2.535,2.541,2.548,2.548,2.554,2.554,2.56,2.56,2.566,2.572,2.579,2.585,2.591,2.598,2.604,2.611,2.617,2.623,2.643,2.67,2.697,2.732,2.775,2.834,2.889,2.953,3.012,3.091,3.184,3.294,0,3.512,3.621,3.749,3.845,3.93,3.99,4.005,4.02,4.02,4.035,4.035,4.035,4.035,4.035,4.035,4.035,4.035,4.035,4.035,4.035,4.02,4.02,4.005,4.005,4.005,3.99,3.99,3.975,3.96,3.96,3.945,3.945,3.93,3.93,3.916,3.916,3.901,3.901,3.887,3.887,3.887,3.887,3.873,3.873,3.873,3.873,3.873,3.887,3.887,3.887,3.887,3.887,3.887,3.887,3.887,3.887,3.887,3.873,3.873,3.873,3.873,3.873,3.873,3.873,3.873,3.859,3.859,3.859,3.859,3.859,3.845,3.845,3.845,3.845,3.845,3.831,3.831,3.831,3.845,3.845,3.845,3.859,3.873,3.873,3.887,3.901,3.916,3.93,3.93,3.945,3.945,0,0,0,0,0,0,0,0,0,0,0,0,0,0,0,0,0,0,1.278,1.278,1.277,1.275,1.275,1.274,1.272,1.272,1.271,1.269,1.268,1.266,1.263,1.262,1.26,1.257,1.256,1.254,1.253,1.253,1.251,1.251,1.251,1.251,1.251,1.253,1.253,1.253,1.253,1.253,1.253,1.253,1.253,1.253,1.251,1.25,1.248,1.247,1.244,1.239,1.235,1.231,1.225,1.219,1.214,1.207,1.201,1.195,1.189,1.184,1.179,1.175,1.171,1.167,1.163,1.159,1.155,1.152,1.149,1.145,1.142,1.138,1.136,1.132,1.13,1.127,1.126,1.124,1.122,1.121,1.12,1.119,1.116,1.115,1.114,1.112,1.109,1.108,1.108,1.107,1.106,1.106,1.106,1.106,1.106,1.107,1.107,1.108,1.108,1.109,1.109,1.111,1.112,1.112,1.114,1.114,1.113,1.113,1.112,1.112,1.112,1.112,1.112,1.112,1.112,1.112,1.112,1.112,1.111,1.111,1.111,1.111,1.111,1.111,1.111,1.111,1.111,1.111,1.111,1.111,1.111,1.111,1.112,1.113,1.113,1.113,1.113,1.113,1.112,1.112,1.111,1.109,1.108,1.108,1.108,1.108,1.108,1.109,1.109,1.109,1.109,1.109,1.109,1.111,1.111,1.111,1.111,1.111,1.111,1.111,1.109,1.109,1.109,1.109,1.111,1.111,1.111,1.111,1.112,1.112,1.113,1.113,1.113,1.112,1.113,1.115,1.115,1.116,1.118,1.119,1.121,1.124,1.125,1.125,1.126,1.127,1.128,1.128,1.13,1.131,1.132,1.136,1.138,1.142,1.144,1.148,1.152,1.155,1.161,1.164,1.17,1.177,1.183,1.191,1.199,1.208,1.217,1.227,1.235,1.244,1.251,1.257,1.265,1.269,1.274,1.277,1.28,1.282,1.283,1.285,1.285,1.286,1.286,1.288,1.288,1.289,1.289,1.291,1.292,1.294,1.296,1.299,1.3,1.3,1.302,0,1.305,1.307,0,0,0,0,0,0,0,0,0,0,0,0,0,0,0,0,0,0,0,0,0,0,0,0,0,0,0,0,0,0,0,0,0,0,0,3.489,3.466,3.455,3.455,3.455,3.455,3.455,3.455,3.444,3.444,3.422,3.4,3.367,3.325,3.283,3.253,3.223,3.194,3.175,3.156,3.147,3.147,3.147,3.137,3.137,3.137,3.137,3.137,3.137,3.128,3.128,3.119,3.119,3.11,3.1,3.091,3.082,3.073,3.065,3.047,3.029,3.012,2.995,2.978,2.961,2.945,2.937,2.921,2.921,2.913,0,0,0,0,0,0,0,2.022,2.002,1.991,1.976,1.969,1.962,1.954,1.947,1.943,1.94,1.936,1.936,1.933,1.933,1.933,1.933,1.933,1.929,1.929,1.929,1.929,1.929,1.929,1.929,1.929,1.929,1.926,1.926,1.926,1.926,1.926,1.926,1.926,1.926,1.929,1.929,1.929,1.929,1.926,1.926
2.529,2.517,2.499,2.488,2.476,2.464,2.459,2.447,2.436,2.43,2.425,2.419,2.414,2.408,2.408,2.408,2.408,2.414,2.419,2.425,2.436,2.442,2.447,2.459,2.47,2.482,2.494,2.505,2.517,2.523,2.535,2.541,2.548,2.548,2.554,2.554,2.56,2.56,2.566,2.572,2.579,2.585,2.591,2.598,2.604,2.611,2.617,2.63,2.656,2.683,2.725,2.775,2.834,0,2.978,3.047,3.128,3.204,3.304,3.41,3.512,3.608,3.71,3.803,3.873,3.945,3.99,4.005,4.02,4.035,4.035,4.035,4.051,4.051,4.035,4.035,4.035,4.035,4.035,4.035,4.035,4.02,4.02,4.005,4.005,3.99,3.99,3.99,3.975,3.96,3.96,3.945,3.945,3.93,3.93,3.93,3.916,3.916,3.916,3.901,3.901,3.901,3.901,3.901,3.887,3.887,3.887,3.887,3.887,3.887,3.887,3.901,3.901,3.901,3.901,3.901,3.887,3.887,3.887,3.887,3.873,3.873,3.873,3.873,3.873,3.873,3.859,3.859,3.859,3.859,3.845,3.845,3.845,3.845,3.831,3.831,3.831,3.831,3.831,3.831,3.845,3.859,3.859,3.873,3.887,3.901,3.901,3.916,3.93,3.945,3.945,3.96,3.975,0,0,0,0,0,0,0,0,0,0,0,0,0,0,0,0,0,0,1.277,1.277,1.277,1.275,1.275,1.274,1.274,1.272,1.271,1.269,1.268,1.266,1.263,1.262,1.26,1.259,1.257,1.256,1.254,1.254,1.254,1.253,1.253,1.253,1.254,1.254,1.256,1.256,1.256,1.256,1.256,1.254,1.254,1.254,1.253,1.251,1.25,1.247,1.242,1.238,1.234,1.228,1.222,1.215,1.208,1.203,1.197,1.191,1.185,1.18,1.176,1.172,1.168,1.164,1.161,1.158,1.153,1.15,1.147,1.143,1.139,1.136,1.133,1.131,1.128,1.127,1.125,1.124,1.122,1.12,1.119,1.118,1.115,1.114,1.113,1.111,1.109,1.108,1.108,1.107,1.107,1.107,1.107,1.106,1.107,1.107,1.108,1.108,1.109,1.109,1.111,1.112,1.112,1.114,1.114,1.113,1.113,1.113,1.113,1.113,1.113,1.112,1.112,1.112,1.112,1.112,1.112,1.111,1.111,1.111,1.111,1.111,1.111,1.111,1.111,1.111,1.111,1.111,1.109,1.109,1.111,1.112,1.112,1.112,1.112,1.112,1.112,1.112,1.111,1.109,1.109,1.108,1.108,1.108,1.108,1.108,1.109,1.109,1.109,1.109,1.109,1.109,1.109,1.111,1.111,1.111,1.111,1.111,1.111,1.109,1.109,1.109,1.109,1.109,1.109,1.111,1.111,1.112,1.112,1.113,1.113,1.113,1.114,1.115,1.116,1.116,1.118,1.119,1.12,1.121,1.124,1.125,1.126,1.127,1.127,1.13,1.13,1.131,1.132,1.134,1.137,1.139,1.143,1.145,1.148,1.152,1.157,1.161,1.166,1.171,1.177,1.185,1.193,1.203,1.212,1.222,1.232,1.241,1.25,1.256,1.263,1.269,1.274,1.277,1.28,1.283,1.283,1.285,1.286,1.286,1.288,1.289,1.291,1.291,1.292,1.292,1.294,1.296,1.297,1.3,1.302,1.304,1.305,1.307,0,1.313,0,0,0,0,0,0,0,0,0,0,0,0,0,0,0,0,0,0,0,0,0,0,0,0,0,0,0,0,0,0,0,0,0,0,0,0,3.422,3.422,3.41,3.41,3.41,3.41,3.4,3.41,3.41,3.4,3.389,3.367,3.335,3.304,3.273,3.243,3.223,3.194,3.165,3.156,3.147,3.147,3.147,3.137,3.137,3.137,3.137,3.137,3.137,3.137,3.128,3.128,3.119,3.11,3.11,3.1,3.082,3.073,3.065,3.047,3.038,3.021,3.004,2.987,2.97,2.953,2.945,2.929,2.921,2.921,2.897,2.804,0,0,0,2.167,0,0,2.002,1.987,1.969,1.962,1.958,1.951,1.94,1.936,1.933,1.929,1.926,1.926,1.926,1.926,1.922,1.922,1.922,1.919,1.919,1.919,1.919,1.915,1.915,1.915,1.912,1.912,1.908,1.908,1.912,1.912,1.912,1.912,1.915,1.915,1.915,1.919,1.919,1.919,1.915
2.535,2.523,2.505,2.494,2.476,2.464,2.453,2.447,2.436,2.43,2.425,2.414,2.414,2.408,2.403,2.403,2.408,2.408,2.414,2.425,2.43,2.442,2.447,2.464,2.47,2.482,2.494,2.505,2.517,2.529,2.535,2.541,2.548,2.548,2.554,2.554,2.56,2.56,2.566,2.572,2.579,2.585,2.591,2.604,2.611,2.617,2.623,2.637,2.67,2.704,2.753,2.819,2.889,2.97,3.065,3.156,3.243,3.335,3.433,3.524,3.608,3.697,3.776,3.859,3.916,3.96,3.99,4.005,4.02,4.035,4.051,4.035,4.051,4.051,4.051,4.051,4.035,4.035,4.035,4.035,4.035,4.02,4.02,4.005,4.005,3.99,3.99,3.99,3.975,3.975,3.96,3.96,3.945,3.945,3.93,3.93,3.93,3.93,3.93,3.93,3.916,3.916,3.916,3.916,3.916,3.916,3.901,3.901,3.901,3.901,3.901,3.901,3.901,3.901,3.901,3.901,3.901,3.901,3.887,3.887,3.873,3.873,3.873,3.873,3.873,3.859,3.859,3.859,3.859,3.845,3.845,3.845,3.831,3.831,3.831,3.817,3.817,3.817,3.831,3.831,3.845,3.845,3.859,3.873,3.887,3.901,3.916,3.916,3.93,3.945,3.945,3.96,3.96,0,0,0,0,0,0,0,0,0,0,0,0,0,0,0,0,0,0,1.278,1.277,1.278,1.277,1.277,1.277,1.275,1.274,1.272,1.271,1.269,1.268,1.265,1.263,1.262,1.26,1.259,1.257,1.256,1.254,1.256,1.256,1.256,1.256,1.256,1.257,1.257,1.257,1.259,1.259,1.259,1.257,1.257,1.256,1.256,1.254,1.251,1.248,1.245,1.241,1.235,1.229,1.224,1.217,1.211,1.204,1.197,1.192,1.187,1.181,1.177,1.173,1.17,1.166,1.162,1.157,1.154,1.15,1.147,1.144,1.141,1.137,1.133,1.132,1.13,1.127,1.126,1.125,1.124,1.121,1.12,1.119,1.116,1.115,1.113,1.112,1.111,1.109,1.109,1.108,1.108,1.108,1.107,1.107,1.107,1.108,1.108,1.108,1.109,1.109,1.111,1.112,1.112,1.114,1.114,1.113,1.113,1.113,1.113,1.113,1.113,1.112,1.112,1.112,1.112,1.112,1.112,1.112,1.111,1.111,1.111,1.111,1.111,1.111,1.111,1.111,1.111,1.109,1.109,1.109,1.109,1.111,1.112,1.112,1.112,1.112,1.112,1.112,1.111,1.111,1.109,1.109,1.108,1.109,1.109,1.109,1.109,1.109,1.109,1.109,1.109,1.109,1.109,1.111,1.111,1.111,1.111,1.111,1.111,1.111,1.109,1.109,1.109,1.109,1.109,1.111,1.111,1.112,1.113,1.114,1.114,1.114,1.115,1.116,1.118,1.119,1.12,1.12,1.122,1.124,1.125,1.126,1.127,1.127,1.128,1.13,1.131,1.132,1.133,1.134,1.137,1.141,1.143,1.145,1.148,1.152,1.157,1.161,1.166,1.171,1.179,1.187,1.196,1.206,1.217,1.227,1.235,1.245,1.254,1.262,1.268,1.274,1.278,1.282,1.283,1.285,1.286,1.288,1.288,1.289,1.289,1.291,1.292,1.292,1.294,1.296,1.296,1.297,1.3,1.304,1.305,1.307,1.308,1.312,1.313,1.317,0,0,0,0,1.885,1.888,1.898,1.902,0,0,0,0,0,0,0,0,0,0,0,0,0,0,0,0,0,0,0,0,0,0,0,0,0,0,0,0,0,0,3.346,3.346,3.346,3.346,3.346,3.346,3.346,3.346,3.335,3.325,3.304,3.283,3.253,3.233,3.214,3.184,3.165,3.156,3.147,3.147,3.137,3.137,3.137,3.137,3.137,3.137,3.137,3.137,3.128,3.128,3.119,3.119,3.11,3.1,3.091,3.073,3.065,3.047,3.038,3.021,3.012,2.987,2.978,2.961,2.945,2.937,2.929,2.921,2.905,2.857,0,0,0,0,0,0,1.999,1.987,1.965,1.958,1.951,1.943,1.936,1.929,1.926,1.922,1.919,1.919,1.915,1.915,1.915,1.912,1.912,1.908,1.908,1.905,1.905,1.902,1.902,1.898,1.898,1.895,1.895,1.895,1.895,1.895,1.898,1.898,1.902,1.905,1.905,1.905,1.908,1.908,1.908
2.548,2.529,2.511,2.494,2.482,2.464,2.453,2.442,2.436,2.425,2.419,2.414,2.408,2.403,2.403,2.403,2.403,2.408,2.414,2.419,2.43,2.442,2.447,2.459,2.47,2.482,2.494,2.505,2.517,2.523,2.535,2.541,2.548,2.548,2.554,2.554,2.56,2.56,2.566,2.572,2.579,2.585,2.598,2.604,2.611,2.623,2.63,2.65,2.683,2.725,2.79,2.857,2.945,3.038,3.147,3.253,3.346,3.455,3.536,3.621,3.684,3.762,3.831,3.887,3.93,3.96,3.99,4.005,4.02,4.035,4.051,4.051,4.051,4.051,4.051,4.051,4.035,4.035,4.035,4.02,4.02,4.02,4.005,4.005,4.005,3.99,3.99,3.975,3.975,3.975,3.975,3.96,3.96,3.96,3.945,3.945,3.945,3.93,3.945,3.945,3.945,3.945,3.945,3.93,3.93,3.93,3.93,3.93,3.916,3.916,3.916,3.916,3.916,3.916,3.916,3.916,3.916,3.901,3.887,3.887,3.873,3.873,3.873,3.873,3.873,3.859,3.859,3.859,3.845,3.845,3.831,3.831,3.831,3.817,3.817,3.817,3.817,3.817,3.817,3.831,3.831,3.845,3.859,3.873,3.887,3.901,3.916,3.916,3.93,3.945,3.945,3.96,3.96,3.975,0,0,0,0,0,0,0,0,0,0,0,0,0,0,0,0,0,0,1.28,1.28,1.278,1.278,1.278,1.278,1.277,1.275,1.274,1.272,1.271,1.268,1.266,1.265,1.263,1.26,1.259,1.259,1.257,1.257,1.257,1.257,1.257,1.259,1.259,1.26,1.26,1.262,1.262,1.26,1.26,1.26,1.259,1.257,1.256,1.253,1.251,1.247,1.242,1.238,1.231,1.225,1.218,1.212,1.206,1.2,1.193,1.188,1.183,1.177,1.173,1.17,1.166,1.162,1.157,1.153,1.15,1.147,1.144,1.141,1.137,1.134,1.132,1.13,1.128,1.127,1.126,1.124,1.122,1.121,1.119,1.118,1.116,1.114,1.113,1.112,1.111,1.109,1.111,1.109,1.109,1.109,1.108,1.108,1.108,1.109,1.109,1.109,1.109,1.111,1.112,1.112,1.113,1.113,1.113,1.113,1.113,1.113,1.113,1.113,1.112,1.112,1.112,1.112,1.112,1.112,1.112,1.111,1.111,1.111,1.111,1.111,1.111,1.111,1.111,1.111,1.109,1.109,1.109,1.109,1.111,1.111,1.111,1.112,1.112,1.112,1.111,1.111,1.111,1.109,1.108,1.108,1.108,1.108,1.108,1.108,1.109,1.108,1.108,1.108,1.108,1.109,1.111,1.112,1.112,1.112,1.112,1.112,1.111,1.111,1.109,1.109,1.109,1.109,1.111,1.111,1.112,1.113,1.114,1.115,1.116,1.116,1.118,1.119,1.12,1.121,1.122,1.124,1.125,1.126,1.127,1.127,1.127,1.128,1.13,1.131,1.133,1.134,1.136,1.138,1.141,1.143,1.145,1.148,1.152,1.155,1.161,1.166,1.171,1.179,1.187,1.197,1.207,1.218,1.228,1.238,1.248,1.257,1.263,1.269,1.275,1.28,1.283,1.286,1.286,1.288,1.289,1.289,1.291,1.291,1.292,1.294,1.294,1.296,1.297,1.297,1.3,1.304,1.305,1.308,1.31,1.312,1.313,1.317,1.32,0,0,0,1.878,1.881,1.885,1.895,1.898,1.902,1.905,0,0,0,0,0,0,0,0,0,0,0,0,0,0,0,0,0,0,0,0,0,0,0,0,0,0,0,0,3.273,3.273,3.283,3.283,3.283,3.294,3.283,3.294,3.283,3.283,3.263,3.243,3.233,3.214,3.204,3.184,3.165,3.147,3.147,3.137,3.137,3.137,3.137,3.137,3.137,3.137,3.137,3.128,3.128,3.128,3.119,3.11,3.11,3.1,3.091,3.073,3.065,3.056,3.038,3.029,3.021,3.004,2.987,2.97,2.961,2.945,2.937,2.929,2.913,2.873,0,0,0,0,0,0,1.999,1.984,1.962,1.951,1.943,1.94,1.929,1.926,1.919,1.915,1.912,1.908,1.908,1.908,1.905,1.902,1.902,1.898,1.895,1.895,1.891,1.888,1.885,1.885,1.885,1.881,1.881,1.881,1.881,1.881,1.885,1.885,1.888,1.891,1.891,1.895,1.898,1.898,1.898
2.554,2.535,2.517,2.499,2.482,2.47,2.453,2.442,2.436,2.425,2.414,2.408,2.403,2.397,2.397,2.397,2.403,2.403,2.414,2.419,2.425,2.436,2.447,2.459,2.47,2.482,2.494,2.505,2.517,2.523,2.535,2.541,2.548,2.548,2.554,2.554,2.56,2.56,2.566,2.572,2.585,2.591,2.598,2.604,2.611,2.623,2.637,2.65,2.69,2.746,2.819,2.897,2.995,3.11,3.223,3.356,3.455,3.548,3.621,3.684,3.749,3.817,3.859,3.901,3.93,3.975,3.99,4.005,4.02,4.035,4.051,4.035,4.051,4.051,4.051,4.035,4.035,4.035,4.02,4.02,4.005,4.005,4.005,3.99,3.99,3.99,3.99,3.975,3.975,3.975,3.975,3.96,3.96,3.96,3.96,3.96,3.96,3.96,3.96,3.96,3.96,3.96,3.96,3.96,3.96,3.945,3.945,3.945,3.945,3.945,3.945,3.93,3.93,3.93,3.93,3.93,3.916,3.901,3.901,3.887,3.887,3.873,3.873,3.873,3.873,3.859,3.859,3.845,3.845,3.831,3.831,3.817,3.817,3.817,3.803,3.803,3.803,3.817,3.817,3.831,3.831,3.845,3.859,3.873,3.887,3.901,3.901,3.916,3.93,3.945,3.945,3.96,3.96,3.96,0,0,0,0,0,0,0,0,0,0,0,0,0,0,0,0,0,0,1.282,1.282,1.282,1.28,1.28,1.28,1.278,1.278,1.275,1.274,1.272,1.271,1.268,1.268,1.266,1.263,1.262,1.26,1.26,1.26,1.26,1.26,1.26,1.26,1.262,1.263,1.263,1.263,1.263,1.263,1.263,1.262,1.262,1.259,1.257,1.254,1.253,1.248,1.244,1.239,1.232,1.227,1.219,1.214,1.207,1.201,1.195,1.189,1.184,1.18,1.176,1.171,1.167,1.163,1.158,1.154,1.15,1.148,1.145,1.141,1.138,1.134,1.132,1.131,1.128,1.127,1.126,1.125,1.122,1.121,1.12,1.119,1.116,1.115,1.113,1.112,1.112,1.111,1.111,1.111,1.111,1.109,1.109,1.109,1.109,1.109,1.109,1.109,1.109,1.111,1.112,1.112,1.113,1.113,1.113,1.113,1.113,1.113,1.113,1.113,1.112,1.112,1.112,1.112,1.112,1.112,1.112,1.112,1.111,1.111,1.111,1.111,1.111,1.111,1.111,1.109,1.109,1.108,1.108,1.109,1.109,1.111,1.111,1.111,1.111,1.111,1.111,1.111,1.109,1.109,1.108,1.108,1.109,1.108,1.108,1.108,1.109,1.108,1.108,1.108,1.108,1.109,1.111,1.112,1.112,1.112,1.112,1.112,1.112,1.111,1.109,1.109,1.109,1.109,1.111,1.111,1.113,1.114,1.115,1.116,1.116,1.118,1.12,1.12,1.121,1.122,1.124,1.124,1.126,1.127,1.128,1.128,1.128,1.13,1.132,1.133,1.134,1.134,1.137,1.138,1.141,1.143,1.145,1.148,1.15,1.154,1.159,1.166,1.171,1.179,1.188,1.197,1.208,1.219,1.228,1.239,1.248,1.259,1.265,1.271,1.275,1.28,1.285,1.286,1.288,1.289,1.291,1.291,1.292,1.292,1.294,1.294,1.296,1.297,1.299,1.3,1.302,1.305,1.308,1.31,1.312,1.313,1.315,1.318,0,0,0,0,1.871,1.875,1.881,1.895,1.898,1.902,1.905,1.908,0,0,0,0,0,0,0,0,0,0,0,0,0,0,0,0,0,0,0,0,0,0,0,0,0,0,0,3.214,3.214,3.223,3.223,3.233,3.233,3.233,3.243,3.243,3.243,3.233,3.223,3.204,3.204,3.194,3.175,3.165,3.147,3.137,3.137,3.137,3.137,3.137,3.137,3.137,3.137,3.128,3.128,3.128,3.119,3.119,3.11,3.11,3.1,3.082,3.073,3.065,3.056,3.047,3.038,3.021,3.012,2.995,2.978,2.97,2.953,2.945,2.937,2.921,2.889,0,2.827,2.656,2.442,0,0,1.999,1.984,1.954,1.947,1.94,1.933,1.929,1.919,1.915,1.908,1.905,1.902,1.902,1.902,1.895,1.895,1.891,1.888,1.885,1.881,1.878,1.875,1.875,1.871,1.871,1.868,1.868,1.868,1.868,1.868,1.871,1.875,1.875,1.878,1.881,1.885,1.885,1.885,1.888
2.566,2.541,2.523,2.505,2.488,2.47,2.453,2.442,2.43,2.419,2.408,2.403,2.397,2.392,2.392,2.392,2.392,2.397,2.403,2.414,2.425,2.43,2.442,2.453,2.47,2.476,2.494,2.505,2.511,2.523,2.529,2.535,2.548,2.548,2.554,2.554,2.56,2.56,2.566,2.579,2.585,2.591,2.604,2.611,2.617,2.63,2.643,2.656,2.704,2.768,0,2.937,3.047,3.165,3.294,3.422,3.512,3.596,3.658,3.723,3.776,3.831,3.873,3.901,3.945,3.96,3.99,4.005,4.02,4.02,4.035,4.035,4.035,4.035,4.035,4.035,4.035,4.02,4.005,4.005,4.005,4.005,3.99,3.99,3.99,3.99,3.99,3.975,3.975,3.975,3.975,3.975,3.975,3.975,3.975,3.96,3.975,3.975,3.975,3.975,3.975,3.975,3.975,3.975,3.975,3.975,3.96,3.96,3.96,3.96,3.945,3.945,3.945,3.945,3.93,3.93,3.93,3.916,3.901,3.887,3.887,3.873,3.873,3.873,3.859,3.859,3.859,3.845,3.845,3.831,3.831,3.817,3.803,3.803,3.803,3.803,3.803,3.803,3.817,3.817,3.831,3.845,3.859,3.859,3.873,3.887,3.901,3.916,3.93,3.93,3.945,3.945,3.945,3.945,0,0,0,0,0,0,0,0,0,0,0,0,0,0,0,0,0,0,1.285,1.283,1.283,1.283,1.283,1.282,1.282,1.28,1.278,1.277,1.275,1.274,1.272,1.269,1.268,1.268,1.265,1.265,1.263,1.263,1.262,1.262,1.262,1.263,1.263,1.265,1.265,1.266,1.266,1.265,1.265,1.263,1.263,1.262,1.259,1.257,1.254,1.25,1.245,1.239,1.234,1.227,1.221,1.214,1.207,1.201,1.196,1.191,1.185,1.181,1.177,1.172,1.168,1.164,1.159,1.155,1.152,1.149,1.147,1.143,1.138,1.136,1.133,1.131,1.13,1.128,1.127,1.125,1.124,1.122,1.121,1.12,1.118,1.116,1.114,1.113,1.113,1.112,1.112,1.112,1.111,1.111,1.111,1.111,1.111,1.111,1.111,1.111,1.111,1.111,1.111,1.112,1.113,1.113,1.113,1.113,1.113,1.113,1.113,1.113,1.113,1.112,1.112,1.112,1.113,1.112,1.112,1.112,1.112,1.111,1.111,1.111,1.111,1.111,1.109,1.109,1.108,1.108,1.108,1.109,1.109,1.109,1.109,1.111,1.111,1.111,1.111,1.109,1.109,1.108,1.108,1.108,1.108,1.108,1.108,1.108,1.108,1.108,1.108,1.108,1.108,1.109,1.111,1.112,1.112,1.112,1.112,1.112,1.112,1.111,1.111,1.109,1.111,1.111,1.111,1.112,1.113,1.115,1.116,1.118,1.119,1.12,1.121,1.122,1.124,1.124,1.125,1.125,1.127,1.128,1.128,1.128,1.13,1.131,1.132,1.133,1.134,1.136,1.137,1.138,1.141,1.143,1.144,1.147,1.15,1.154,1.159,1.166,1.171,1.179,1.188,1.199,1.208,1.219,1.229,1.238,1.248,1.257,1.263,1.269,1.275,1.28,1.283,1.286,1.288,1.289,1.291,1.292,1.292,1.294,1.296,1.296,1.297,1.299,1.3,1.302,1.304,1.307,1.31,1.312,1.313,1.317,1.318,1.32,0,0,1.858,1.865,1.868,1.875,1.881,1.891,1.898,1.898,1.905,1.908,0,0,0,0,0,0,0,0,0,0,0,0,0,0,0,0,0,0,0,0,0,0,0,0,0,0,0,3.156,3.165,3.175,3.175,3.184,3.194,3.204,3.194,3.204,3.204,3.204,3.194,3.194,3.194,3.184,3.175,3.165,3.147,3.137,3.137,3.137,3.137,3.137,3.137,3.137,3.128,3.128,3.128,3.128,3.119,3.119,3.11,3.1,3.1,3.091,3.073,3.073,3.065,3.056,3.047,3.029,3.021,3.004,2.995,2.978,2.97,2.961,2.953,2.945,2.905,2.889,0,0,2.56,0,0,0,1.98,1.951,1.943,1.936,1.929,1.922,1.919,1.912,1.905,1.902,1.898,1.895,1.891,1.888,1.885,1.881,1.878,1.875,1.871,1.865,1.861,1.861,1.858,1.858,1.855,1.855,1.855,1.855,1.855,1.858,1.861,1.865,1.868,1.868,1.871,1.871,1.875,1.878
2.579,2.554,2.529,2.511,2.494,2.47,2.453,2.442,2.43,2.419,2.408,2.397,2.392,2.387,2.381,2.381,2.387,2.392,2.397,2.403,2.414,2.43,2.436,2.453,2.464,2.476,2.488,2.499,2.511,2.523,2.529,2.535,2.541,2.548,2.548,2.554,2.56,2.566,2.566,2.579,2.585,2.591,2.604,2.611,2.617,2.63,2.643,2.663,2.711,2.79,2.873,2.97,3.082,3.214,3.346,3.466,3.548,3.621,3.684,3.736,3.789,3.831,3.873,3.916,3.93,3.96,3.975,3.99,4.005,4.02,4.02,4.02,4.035,4.02,4.02,4.02,4.02,4.005,4.005,3.99,3.99,3.99,3.99,3.99,3.99,3.99,3.99,3.975,3.975,3.975,3.975,3.975,3.975,3.975,3.975,3.975,3.975,3.975,3.99,3.99,3.99,3.99,3.99,3.99,3.99,3.99,3.975,3.975,3.975,3.96,3.96,3.96,3.96,3.945,3.945,3.93,3.93,3.916,3.901,3.901,3.887,3.873,3.873,3.873,3.859,3.859,3.859,3.845,3.845,3.831,3.817,3.817,3.803,3.803,3.803,3.803,3.803,3.803,3.803,3.817,3.831,3.831,3.845,3.859,3.873,3.887,3.887,3.901,3.916,3.916,3.916,3.93,3.93,3.93,0,0,0,0,0,0,0,0,0,0,0,0,0,0,0,0,0,0,1.286,1.286,1.286,1.285,1.285,1.283,1.283,1.283,1.282,1.278,1.278,1.277,1.274,1.272,1.271,1.269,1.268,1.266,1.266,1.265,1.265,1.265,1.265,1.265,1.265,1.266,1.266,1.266,1.266,1.266,1.266,1.265,1.263,1.262,1.26,1.259,1.256,1.251,1.245,1.239,1.234,1.228,1.221,1.214,1.207,1.201,1.196,1.191,1.187,1.181,1.177,1.173,1.17,1.166,1.162,1.158,1.154,1.152,1.148,1.144,1.141,1.137,1.134,1.132,1.131,1.13,1.127,1.126,1.125,1.124,1.122,1.121,1.119,1.118,1.116,1.115,1.114,1.113,1.113,1.112,1.112,1.112,1.111,1.111,1.111,1.111,1.109,1.109,1.109,1.109,1.111,1.112,1.113,1.113,1.113,1.113,1.113,1.113,1.113,1.113,1.113,1.113,1.113,1.113,1.113,1.113,1.113,1.112,1.112,1.111,1.111,1.111,1.111,1.111,1.109,1.109,1.108,1.108,1.108,1.109,1.108,1.109,1.108,1.109,1.109,1.109,1.109,1.109,1.108,1.108,1.108,1.108,1.108,1.107,1.108,1.108,1.108,1.108,1.108,1.108,1.108,1.109,1.109,1.111,1.112,1.112,1.112,1.112,1.112,1.111,1.111,1.111,1.109,1.111,1.111,1.112,1.113,1.116,1.118,1.119,1.12,1.121,1.122,1.124,1.124,1.125,1.125,1.125,1.127,1.128,1.13,1.13,1.131,1.132,1.133,1.134,1.136,1.137,1.138,1.139,1.141,1.142,1.143,1.145,1.149,1.154,1.159,1.166,1.172,1.18,1.189,1.199,1.208,1.219,1.228,1.237,1.245,1.254,1.262,1.268,1.274,1.278,1.283,1.285,1.288,1.289,1.292,1.292,1.294,1.296,1.297,1.299,1.3,1.3,1.302,1.304,1.305,1.307,1.31,1.313,1.315,1.317,1.318,1.322,0,0,1.852,1.858,1.865,1.871,1.878,1.891,1.895,1.902,1.905,1.905,0,0,0,0,0,0,0,0,0,0,0,0,0,0,0,0,0,0,0,0,0,3.175,0,0,0,0,3.137,3.137,3.137,3.137,3.147,3.156,3.165,3.175,3.175,3.184,3.184,3.184,3.184,3.184,3.184,3.184,3.175,3.165,3.147,3.137,3.137,3.137,3.137,3.137,3.137,3.137,3.137,3.128,3.128,3.128,3.119,3.119,3.11,3.1,3.1,3.091,3.082,3.073,3.065,3.065,3.056,3.047,3.029,3.021,3.012,3.004,2.987,2.978,2.97,2.953,2.937,0,0,0,2.69,0,0,0,0,1.943,1.936,1.929,1.926,1.919,1.908,1.905,1.898,1.895,1.891,1.888,1.885,1.881,1.878,1.871,1.868,1.865,1.858,1.855,1.852,1.848,1.845,1.845,1.842,1.842,1.842,1.842,1.845,1.845,1.848,1.852,1.855,1.858,1.858,1.861,1.865,1.868
2.585,2.566,2.541,2.517,2.494,2.476,2.459,2.442,2.43,2.414,2.403,2.397,2.387,2.381,2.376,2.376,2.381,2.387,2.392,2.397,2.408,2.419,2.436,2.447,2.459,2.476,2.488,2.499,2.511,2.517,2.529,2.535,2.541,2.541,2.548,2.554,2.56,2.566,2.572,2.579,2.585,2.598,2.604,2.611,2.623,2.63,2.643,2.663,2.725,2.804,2.905,3.004,3.119,3.253,3.378,3.489,3.572,3.633,3.697,3.736,3.789,3.831,3.873,3.901,3.93,3.945,3.96,3.975,3.99,4.005,4.005,4.005,4.005,4.005,4.005,4.005,4.005,3.99,3.99,3.99,3.99,3.99,3.975,3.975,3.975,3.975,3.975,3.975,3.975,3.99,3.99,3.99,3.99,3.99,3.99,3.99,3.99,3.99,3.99,3.99,4.005,3.99,3.99,4.005,4.005,4.005,3.99,3.99,3.975,3.975,3.975,3.96,3.96,3.945,3.945,3.93,3.93,3.93,3.916,3.901,3.887,3.873,3.873,3.873,3.859,3.859,3.845,3.845,3.845,3.831,3.817,3.817,3.803,3.803,3.803,3.803,3.803,3.803,3.803,3.817,3.831,3.831,3.845,3.859,3.859,3.873,3.887,3.887,3.901,3.901,3.901,3.901,3.916,3.916,0,0,0,0,0,0,0,0,0,0,0,0,0,0,0,0,0,0,1.289,1.289,1.289,1.289,1.288,1.288,1.286,1.285,1.283,1.282,1.28,1.278,1.277,1.275,1.272,1.272,1.271,1.269,1.268,1.266,1.266,1.266,1.266,1.266,1.268,1.268,1.268,1.268,1.268,1.268,1.268,1.266,1.266,1.263,1.262,1.259,1.256,1.251,1.247,1.241,1.234,1.227,1.219,1.214,1.207,1.201,1.196,1.192,1.187,1.183,1.179,1.175,1.171,1.167,1.163,1.159,1.155,1.153,1.149,1.145,1.142,1.138,1.136,1.133,1.132,1.131,1.128,1.127,1.126,1.125,1.124,1.122,1.12,1.119,1.118,1.116,1.115,1.114,1.114,1.113,1.113,1.112,1.112,1.111,1.111,1.111,1.111,1.109,1.109,1.109,1.111,1.112,1.112,1.112,1.112,1.112,1.112,1.113,1.113,1.113,1.113,1.113,1.113,1.113,1.113,1.113,1.113,1.113,1.112,1.112,1.111,1.111,1.111,1.111,1.109,1.109,1.109,1.109,1.109,1.109,1.108,1.108,1.108,1.108,1.109,1.109,1.109,1.108,1.108,1.108,1.107,1.107,1.107,1.107,1.107,1.107,1.107,1.107,1.107,1.107,1.108,1.108,1.109,1.111,1.112,1.112,1.112,1.112,1.111,1.111,1.109,1.111,1.109,1.111,1.111,1.112,1.114,1.115,1.118,1.119,1.12,1.121,1.122,1.124,1.125,1.125,1.125,1.126,1.127,1.128,1.13,1.131,1.132,1.132,1.134,1.136,1.137,1.137,1.138,1.139,1.141,1.142,1.143,1.145,1.149,1.154,1.159,1.166,1.172,1.18,1.189,1.199,1.208,1.218,1.225,1.234,1.242,1.25,1.257,1.265,1.271,1.277,1.28,1.285,1.288,1.289,1.292,1.294,1.296,1.297,1.299,1.299,1.3,1.302,1.304,1.304,1.307,1.31,1.312,1.315,1.317,1.318,1.32,1.323,0,1.836,1.845,1.852,1.858,1.865,1.875,1.888,1.895,1.898,1.902,1.905,1.898,0,0,0,0,0,0,0,0,0,0,0,0,0,0,0,0,0,0,0,0,3.243,3.204,0,3.137,3.128,3.128,3.128,3.128,3.128,3.137,3.137,3.147,3.147,3.156,3.165,3.165,3.175,3.175,3.175,3.184,3.175,3.175,3.165,3.147,3.147,3.137,3.137,3.137,3.137,3.137,3.137,3.128,3.128,3.128,3.128,3.119,3.119,3.11,3.1,3.1,3.091,3.082,3.082,3.073,3.073,3.065,3.056,3.047,3.038,3.021,3.012,3.012,3.004,2.987,2.978,2.953,2.953,2.945,0,0,0,0,0,0,1.943,0,1.926,1.919,1.915,1.908,1.902,1.898,1.891,1.888,1.885,1.878,1.875,1.868,1.861,1.858,1.855,1.848,1.845,1.842,1.839,1.836,1.832,1.832,1.832,1.832,1.832,1.832,1.836,1.836,1.839,1.842,1.845,1.845,1.852,1.855,1.855
2.598,2.572,2.548,2.523,2.499,2.482,2.459,2.442,2.425,2.414,2.403,2.392,2.381,2.376,2.371,2.371,2.371,2.376,2.387,2.392,2.403,2.414,2.43,2.442,2.459,2.47,2.482,2.494,2.511,2.517,2.529,2.535,2.535,2.541,2.548,2.554,2.56,2.566,2.566,2.579,2.585,2.598,2.604,2.611,2.623,2.637,2.65,2.67,2.732,2.827,2.929,3.038,3.147,3.273,3.4,3.501,3.584,3.646,3.697,3.749,3.789,3.831,3.873,3.901,3.916,3.945,3.945,3.96,3.975,3.99,3.99,3.99,3.99,3.99,3.99,3.99,3.99,3.975,3.975,3.975,3.975,3.975,3.975,3.975,3.975,3.975,3.975,3.975,3.975,3.975,3.99,3.99,3.99,3.99,3.99,3.99,3.99,3.99,3.99,3.99,4.005,4.005,4.005,4.005,4.005,4.005,4.005,3.99,3.99,3.975,3.975,3.96,3.96,3.945,3.945,3.93,3.93,3.916,3.916,3.901,3.887,3.873,3.873,3.859,3.859,3.859,3.845,3.845,3.845,3.831,3.817,3.817,3.803,3.803,3.803,3.803,3.803,3.803,3.803,3.817,3.831,3.831,3.845,3.845,3.845,3.859,3.873,3.873,3.873,3.887,3.887,3.887,3.901,3.901,3.901,0,0,0,0,0,0,0,0,0,0,0,0,0,0,0,0,0,0,1.292,1.292,1.292,1.291,1.291,1.291,1.288,1.286,1.283,1.282,1.28,1.278,1.277,1.275,1.274,1.272,1.271,1.271,1.269,1.268,1.268,1.268,1.268,1.269,1.269,1.269,1.269,1.269,1.269,1.269,1.268,1.266,1.265,1.263,1.26,1.257,1.253,1.247,1.241,1.234,1.227,1.221,1.212,1.207,1.2,1.196,1.192,1.187,1.183,1.18,1.176,1.172,1.168,1.164,1.161,1.157,1.153,1.15,1.147,1.143,1.141,1.137,1.136,1.133,1.132,1.13,1.128,1.127,1.126,1.125,1.124,1.121,1.12,1.118,1.116,1.115,1.115,1.115,1.114,1.114,1.113,1.113,1.112,1.112,1.111,1.111,1.111,1.109,1.111,1.111,1.111,1.112,1.111,1.112,1.112,1.112,1.113,1.113,1.113,1.113,1.113,1.113,1.113,1.113,1.113,1.113,1.113,1.113,1.112,1.112,1.111,1.111,1.111,1.111,1.111,1.109,1.109,1.109,1.109,1.108,1.108,1.108,1.108,1.108,1.108,1.108,1.107,1.107,1.107,1.107,1.107,1.107,1.107,1.107,1.107,1.107,1.107,1.107,1.107,1.107,1.108,1.108,1.109,1.109,1.111,1.111,1.111,1.111,1.109,1.111,1.111,1.111,1.111,1.112,1.113,1.114,1.116,1.118,1.119,1.12,1.121,1.122,1.124,1.125,1.125,1.125,1.127,1.128,1.13,1.131,1.131,1.132,1.133,1.134,1.137,1.137,1.137,1.138,1.138,1.139,1.141,1.142,1.144,1.148,1.153,1.159,1.166,1.172,1.18,1.188,1.197,1.206,1.214,1.222,1.231,1.238,1.245,1.254,1.262,1.269,1.275,1.28,1.283,1.288,1.291,1.294,1.294,1.296,1.297,1.299,1.3,1.302,1.304,1.305,1.307,1.307,1.308,1.313,1.315,1.317,0,1.32,0,0,1.826,1.836,1.845,1.852,1.861,1.871,1.885,1.891,1.898,1.898,1.902,1.898,0,0,0,0,0,0,0,0,0,0,0,0,0,0,0,0,0,0,0,3.325,0,3.223,3.175,3.128,3.128,3.128,3.128,3.119,3.119,3.119,3.128,3.137,3.147,3.147,3.156,3.165,3.165,3.175,3.175,3.175,3.175,3.175,3.165,3.147,3.147,3.137,3.137,3.137,3.137,3.137,3.137,3.128,3.128,3.128,3.119,3.119,3.119,3.11,3.1,3.1,3.091,3.091,3.082,3.082,3.073,3.065,3.065,3.056,3.047,3.038,3.029,3.021,3.012,3.004,2.995,2.97,2.97,2.961,2.953,0,0,0,0,0,0,1.929,0,1.919,1.912,1.905,1.898,1.895,1.891,1.885,1.878,1.875,1.868,1.861,1.855,1.848,1.842,1.839,1.836,1.832,1.826,1.826,1.823,1.823,1.82,1.82,1.82,1.823,1.826,1.826,1.829,1.832,1.836,1.836,1.839,1.845,1.845
2.604,2.585,2.56,2.535,2.511,2.488,2.464,2.447,2.43,2.414,2.403,2.392,2.381,2.376,2.371,2.371,2.371,2.371,2.381,2.387,2.403,2.414,2.425,2.442,2.453,2.464,2.482,2.494,2.505,2.517,2.523,2.529,2.535,2.541,2.548,2.554,2.56,2.56,2.566,2.572,2.585,2.598,2.604,2.617,2.623,2.637,2.65,2.683,2.746,2.85,2.945,3.065,3.175,3.294,3.422,3.524,3.596,3.658,3.71,3.749,3.789,3.831,3.859,3.887,3.916,3.93,3.93,3.945,3.96,3.96,3.96,3.975,3.975,3.975,3.975,3.975,3.975,3.96,3.96,3.96,3.96,3.96,3.975,3.96,3.96,3.96,3.975,3.975,3.975,3.975,3.99,3.99,3.99,3.99,3.99,3.99,3.99,3.99,3.99,3.99,3.99,4.005,4.005,4.005,4.005,4.005,4.005,3.99,3.99,3.975,3.975,3.96,3.96,3.945,3.945,3.93,3.93,3.916,3.916,3.901,3.887,3.887,3.873,3.859,3.859,3.859,3.845,3.845,3.831,3.831,3.817,3.817,3.803,3.803,3.803,3.803,3.803,3.803,3.803,3.817,3.817,3.831,3.831,3.845,3.845,3.845,3.859,3.859,3.859,3.859,3.873,3.873,3.873,3.873,3.887,0,0,0,0,0,0,0,0,0,0,0,0,0,0,0,0,0,0,0,1.297,1.296,1.296,1.294,1.292,1.291,1.289,1.286,1.285,1.283,1.28,1.278,1.277,1.275,1.274,1.274,1.272,1.271,1.269,1.269,1.269,1.269,1.269,1.269,1.271,1.271,1.271,1.269,1.271,1.269,1.268,1.266,1.265,1.262,1.259,1.254,1.248,1.242,1.235,1.228,1.221,1.214,1.207,1.201,1.197,1.192,1.187,1.183,1.18,1.176,1.173,1.17,1.166,1.162,1.158,1.154,1.152,1.148,1.144,1.141,1.138,1.137,1.134,1.133,1.131,1.13,1.128,1.127,1.126,1.125,1.122,1.12,1.119,1.118,1.116,1.115,1.115,1.114,1.114,1.114,1.113,1.113,1.113,1.112,1.112,1.111,1.111,1.111,1.111,1.112,1.111,1.112,1.112,1.112,1.112,1.113,1.113,1.113,1.113,1.113,1.113,1.113,1.113,1.113,1.113,1.113,1.113,1.112,1.112,1.112,1.112,1.112,1.112,1.111,1.111,1.109,1.109,1.109,1.108,1.108,1.108,1.107,1.108,1.108,1.107,1.107,1.107,1.107,1.106,1.106,1.106,1.106,1.106,1.106,1.107,1.107,1.107,1.107,1.106,1.107,1.108,1.108,1.109,1.109,1.109,1.109,1.111,1.109,1.111,1.111,1.112,1.112,1.113,1.114,1.115,1.118,1.119,1.119,1.121,1.122,1.122,1.124,1.125,1.125,1.126,1.127,1.128,1.13,1.131,1.132,1.133,1.133,1.136,1.137,1.137,1.137,1.137,1.138,1.139,1.139,1.141,1.143,1.147,1.152,1.158,1.164,1.171,1.179,1.187,1.195,1.203,1.211,1.219,1.228,1.235,1.242,1.251,1.259,1.268,1.274,1.278,1.283,1.288,1.291,1.294,1.296,1.297,1.297,1.299,1.3,1.302,1.304,1.307,1.307,1.31,1.312,1.313,1.317,0,0,0,0,0,1.82,1.832,1.842,1.848,1.858,1.868,1.881,1.888,1.895,1.898,1.898,1.895,0,0,0,0,0,0,0,0,0,0,0,0,0,0,0,0,0,0,3.378,3.325,0,0,3.175,3.137,3.128,3.119,3.119,3.119,3.119,3.128,3.137,3.147,3.156,3.156,3.165,3.175,3.175,3.175,3.184,3.184,3.184,3.175,3.175,3.156,3.147,3.147,3.147,3.137,3.137,3.137,3.137,3.128,3.128,3.128,3.119,3.119,3.11,3.11,3.1,3.1,3.091,3.091,3.091,3.082,3.082,3.073,3.065,3.065,3.056,3.056,3.047,3.038,3.029,3.029,3.012,3.004,3.004,2.995,2.995,0,0,0,0,0,0,0,0,0,1.908,1.902,1.895,1.891,1.888,1.881,1.871,1.868,1.858,1.855,1.845,1.839,1.836,1.829,1.826,1.823,1.82,1.817,1.813,1.813,1.81,1.81,1.813,1.813,1.817,1.817,1.82,1.823,1.826,1.829,1.829,1.832,1.839
2.617,2.591,2.566,2.541,2.517,2.494,2.476,2.453,2.436,2.419,2.403,2.392,2.387,2.376,2.371,2.365,2.371,2.371,2.376,2.387,2.397,2.408,2.425,2.436,2.453,2.464,2.476,2.488,2.499,2.511,2.517,2.523,2.529,2.535,2.541,2.548,2.554,2.56,2.566,2.579,2.585,2.598,2.604,2.617,2.623,2.637,2.643,2.683,2.76,2.857,2.97,3.091,3.204,3.335,3.444,3.548,3.621,3.671,3.71,3.762,3.789,3.831,3.859,3.887,3.901,3.916,3.916,3.93,3.945,3.945,3.945,3.945,3.945,3.945,3.945,3.96,3.945,3.945,3.945,3.945,3.96,3.96,3.96,3.96,3.96,3.96,3.96,3.96,3.975,3.975,3.975,3.975,3.99,3.99,3.99,3.99,3.99,3.99,3.99,3.99,3.99,3.99,3.99,3.99,3.99,3.99,3.99,3.99,3.975,3.975,3.96,3.96,3.945,3.945,3.93,3.93,3.916,3.916,3.901,3.901,3.887,3.887,3.873,3.859,3.859,3.859,3.845,3.845,3.831,3.831,3.817,3.817,3.803,3.803,3.789,3.789,3.789,3.803,3.803,3.803,3.817,3.817,3.831,3.831,3.831,3.831,3.831,3.845,3.845,3.845,3.845,3.845,3.859,3.859,3.859,0,0,0,0,0,0,0,0,0,0,0,0,0,0,0,0,0,0,0,1.3,1.299,1.297,1.296,1.296,1.294,1.291,1.288,1.286,1.285,1.283,1.282,1.278,1.277,1.275,1.275,1.274,1.274,1.271,1.271,1.271,1.271,1.271,1.271,1.271,1.271,1.271,1.272,1.272,1.271,1.269,1.268,1.266,1.263,1.26,1.256,1.251,1.244,1.237,1.229,1.222,1.215,1.208,1.201,1.197,1.191,1.187,1.183,1.18,1.176,1.173,1.17,1.167,1.163,1.159,1.155,1.153,1.149,1.145,1.142,1.139,1.138,1.136,1.134,1.132,1.13,1.128,1.128,1.126,1.125,1.122,1.121,1.119,1.118,1.118,1.116,1.115,1.114,1.114,1.114,1.113,1.113,1.113,1.112,1.111,1.111,1.112,1.111,1.111,1.112,1.111,1.112,1.113,1.113,1.113,1.113,1.113,1.113,1.113,1.113,1.113,1.113,1.113,1.113,1.113,1.113,1.113,1.112,1.112,1.112,1.112,1.112,1.112,1.111,1.111,1.109,1.109,1.109,1.108,1.108,1.107,1.107,1.107,1.107,1.107,1.107,1.107,1.107,1.106,1.106,1.106,1.106,1.106,1.106,1.107,1.107,1.107,1.107,1.106,1.107,1.107,1.108,1.108,1.108,1.108,1.108,1.109,1.111,1.111,1.112,1.112,1.112,1.113,1.114,1.116,1.118,1.119,1.12,1.121,1.122,1.124,1.125,1.125,1.126,1.126,1.127,1.128,1.13,1.131,1.132,1.133,1.134,1.136,1.137,1.137,1.136,1.137,1.138,1.138,1.138,1.139,1.142,1.145,1.15,1.155,1.162,1.168,1.176,1.184,1.191,1.199,1.207,1.215,1.224,1.231,1.239,1.248,1.257,1.266,1.274,1.278,1.283,1.288,1.291,1.294,1.297,1.297,1.299,1.3,1.302,1.304,1.305,1.307,1.31,1.312,1.313,1.315,0,0,0,0,0,1.807,1.817,1.829,1.839,1.848,1.858,1.868,1.878,1.888,1.895,1.895,1.898,1.895,1.891,0,0,0,0,0,0,0,0,0,0,0,0,0,0,0,0,3.378,3.346,3.294,3.253,3.204,3.165,3.147,3.128,3.128,3.128,3.119,3.128,3.137,3.147,3.156,3.165,3.175,3.184,3.184,3.194,3.194,3.194,3.194,3.194,3.184,3.175,3.156,3.156,3.147,3.147,3.147,3.137,3.137,3.137,3.128,3.128,3.128,3.119,3.119,3.119,3.11,3.11,3.1,3.1,3.091,3.091,3.091,3.082,3.082,3.073,3.073,3.065,3.056,3.056,3.056,3.038,3.038,3.029,3.021,3.021,3.012,3.012,3.004,0,0,0,0,0,0,0,0,1.905,1.898,1.895,1.891,1.885,1.878,1.871,1.861,1.852,1.845,1.839,1.832,1.826,1.82,1.817,1.813,1.81,1.81,1.807,1.804,1.804,1.804,1.804,1.804,1.807,1.81,1.81,1.813,1.817,1.82,1.823,1.826,1.829
2.623,2.604,2.579,2.554,2.529,2.505,2.482,2.459,2.442,2.425,2.408,2.397,2.387,2.381,2.371,2.365,2.371,2.371,2.376,2.387,2.397,2.408,2.419,2.436,2.447,2.464,2.476,2.488,2.499,2.505,2.517,2.523,2.523,2.529,2.535,2.541,2.554,2.56,2.566,2.579,2.585,2.591,2.604,2.617,2.623,2.637,2.65,2.704,2.79,2.889,3.012,3.137,3.263,3.389,3.489,3.584,3.646,3.684,3.723,3.762,3.803,3.831,3.859,3.873,3.887,3.901,3.901,3.916,3.93,3.93,3.916,3.93,3.93,3.93,3.93,3.93,3.93,3.93,3.93,3.945,3.945,3.945,3.945,3.945,3.945,3.96,3.96,3.96,3.96,3.975,3.975,3.975,3.975,3.975,3.975,3.975,3.975,3.975,3.975,3.975,3.975,3.975,3.99,3.99,3.99,3.99,3.99,3.975,3.975,3.96,3.96,3.945,3.945,3.93,3.93,3.916,3.916,3.916,3.901,3.887,3.887,3.887,3.873,3.859,3.859,3.859,3.845,3.831,3.831,3.831,3.817,3.817,3.803,3.803,3.803,3.789,3.789,3.789,3.789,3.803,3.803,3.803,3.817,3.817,3.817,3.817,3.817,3.831,3.831,3.831,3.831,3.831,3.845,3.845,3.845,3.845,0,0,0,0,0,0,0,0,0,0,0,0,0,0,0,0,0,0,1.3,1.3,1.299,1.299,1.297,1.296,1.292,1.291,1.288,1.286,1.285,1.283,1.282,1.28,1.278,1.277,1.275,1.274,1.274,1.272,1.272,1.272,1.272,1.272,1.272,1.272,1.272,1.274,1.272,1.272,1.271,1.269,1.268,1.265,1.262,1.259,1.253,1.247,1.239,1.231,1.224,1.217,1.208,1.201,1.197,1.192,1.187,1.184,1.18,1.177,1.175,1.171,1.168,1.164,1.162,1.158,1.154,1.15,1.147,1.144,1.142,1.139,1.137,1.134,1.133,1.131,1.13,1.128,1.126,1.125,1.122,1.121,1.119,1.119,1.118,1.116,1.115,1.115,1.114,1.114,1.114,1.113,1.113,1.112,1.112,1.111,1.112,1.111,1.112,1.112,1.112,1.112,1.113,1.113,1.113,1.113,1.113,1.113,1.113,1.113,1.113,1.113,1.113,1.113,1.113,1.113,1.113,1.112,1.112,1.112,1.112,1.112,1.112,1.111,1.111,1.109,1.108,1.108,1.107,1.107,1.107,1.107,1.107,1.107,1.107,1.107,1.107,1.107,1.106,1.106,1.106,1.106,1.107,1.107,1.107,1.108,1.107,1.107,1.106,1.107,1.107,1.108,1.108,1.108,1.108,1.108,1.109,1.111,1.111,1.112,1.112,1.113,1.114,1.115,1.116,1.119,1.119,1.12,1.121,1.122,1.124,1.125,1.125,1.125,1.126,1.127,1.128,1.13,1.131,1.132,1.133,1.134,1.136,1.137,1.136,1.136,1.137,1.137,1.138,1.138,1.139,1.142,1.145,1.149,1.153,1.159,1.166,1.173,1.181,1.188,1.196,1.204,1.214,1.222,1.229,1.238,1.248,1.257,1.268,1.274,1.28,1.285,1.288,1.292,1.296,1.297,1.297,1.299,1.3,1.302,1.304,1.305,1.31,1.31,1.312,1.313,1.315,0,0,0,0,0,1.804,1.813,1.826,1.836,1.845,1.855,1.865,1.878,1.888,1.891,1.895,1.898,1.895,1.895,0,0,0,0,0,0,0,0,0,0,0,0,0,0,0,0,3.356,3.314,3.273,3.233,3.194,3.165,3.137,0,3.128,3.128,3.137,3.147,3.156,3.165,3.175,3.184,3.194,3.214,3.214,3.214,3.214,3.214,3.214,3.214,3.204,3.184,3.165,3.165,3.156,3.147,3.147,3.147,3.137,3.137,3.137,3.128,3.128,3.128,3.119,3.119,3.11,3.11,3.1,3.1,3.1,3.1,3.091,3.091,3.082,3.082,3.073,3.073,3.065,3.065,3.065,3.056,3.047,3.038,3.038,3.029,3.029,3.029,3.029,0,0,0,0,0,0,0,0,1.902,1.895,1.891,1.885,1.881,1.875,1.865,1.855,1.848,1.839,1.832,1.823,1.82,1.813,1.81,1.807,1.804,1.801,1.801,1.801,1.798,1.798,1.801,1.801,1.801,1.804,1.804,1.807,1.81,1.813,1.813,1.817,1.823
2.63,2.611,2.591,2.566,2.541,2.517,2.494,2.47,2.453,2.43,2.414,2.403,2.392,2.381,2.376,2.376,2.371,2.371,2.376,2.387,2.397,2.408,2.425,2.436,2.447,2.459,2.47,2.482,2.494,2.505,2.511,2.517,2.523,2.529,2.535,2.541,2.548,2.56,2.566,2.572,2.585,2.591,2.598,2.611,2.617,2.637,2.67,2.732,2.827,2.945,3.073,3.214,3.325,3.455,3.536,3.621,3.671,3.71,3.749,3.776,3.803,3.831,3.859,3.873,3.887,3.887,3.901,3.901,3.901,3.916,3.901,3.901,3.901,3.901,3.901,3.901,3.901,3.916,3.916,3.916,3.916,3.93,3.93,3.93,3.945,3.945,3.945,3.96,3.96,3.96,3.96,3.975,3.975,3.975,3.975,3.975,3.975,3.96,3.96,3.96,3.96,3.975,3.975,3.975,3.975,3.975,3.975,3.975,3.96,3.96,3.945,3.945,3.93,3.93,3.93,3.916,3.916,3.901,3.901,3.887,3.887,3.887,3.873,3.859,3.859,3.859,3.845,3.831,3.831,3.831,3.831,3.817,3.803,3.803,3.803,3.789,3.789,3.789,3.789,3.789,3.789,3.803,3.803,3.803,3.803,3.803,3.803,3.803,3.817,3.817,3.817,3.831,3.831,3.831,3.831,3.831,0,0,0,0,0,0,0,0,0,0,0,0,0,0,0,0,0,0,1.304,1.302,1.3,1.299,1.299,1.297,1.294,1.292,1.289,1.288,1.286,1.285,1.283,1.282,1.28,1.278,1.277,1.275,1.274,1.274,1.274,1.274,1.274,1.274,1.274,1.274,1.274,1.274,1.275,1.274,1.274,1.272,1.269,1.266,1.263,1.26,1.254,1.248,1.241,1.234,1.225,1.218,1.21,1.203,1.197,1.192,1.187,1.184,1.181,1.179,1.175,1.172,1.171,1.167,1.163,1.159,1.157,1.153,1.149,1.145,1.143,1.141,1.138,1.136,1.133,1.131,1.13,1.128,1.126,1.125,1.122,1.121,1.119,1.119,1.118,1.118,1.116,1.115,1.115,1.115,1.114,1.113,1.113,1.112,1.112,1.111,1.112,1.112,1.112,1.112,1.112,1.112,1.113,1.113,1.113,1.112,1.112,1.112,1.112,1.112,1.112,1.112,1.112,1.112,1.112,1.112,1.112,1.112,1.112,1.112,1.112,1.112,1.112,1.111,1.111,1.109,1.108,1.107,1.107,1.106,1.106,1.107,1.107,1.107,1.107,1.107,1.107,1.107,1.107,1.107,1.107,1.107,1.107,1.107,1.107,1.108,1.107,1.107,1.107,1.107,1.107,1.107,1.108,1.108,1.108,1.108,1.109,1.111,1.111,1.112,1.112,1.113,1.114,1.115,1.116,1.119,1.119,1.12,1.121,1.122,1.124,1.124,1.125,1.125,1.126,1.127,1.13,1.131,1.132,1.133,1.133,1.134,1.136,1.136,1.136,1.136,1.136,1.137,1.137,1.138,1.139,1.141,1.144,1.148,1.152,1.158,1.164,1.171,1.179,1.185,1.193,1.201,1.212,1.221,1.229,1.238,1.248,1.257,1.268,1.275,1.28,1.285,1.289,1.294,1.296,1.297,1.299,1.3,1.302,1.304,1.305,1.307,1.31,1.312,1.313,1.315,1.318,0,0,1.786,1.789,1.795,1.804,1.813,1.823,1.832,1.842,1.855,1.865,1.875,1.885,1.891,1.895,1.898,1.902,1.905,0,0,0,0,0,0,0,0,0,0,0,0,0,0,0,0,3.356,3.314,3.263,3.243,3.204,3.165,3.147,0,3.156,3.156,3.156,3.165,3.184,3.194,3.214,3.223,3.233,3.243,3.243,3.233,3.233,3.233,3.233,3.223,3.214,3.194,3.175,3.165,3.165,3.156,3.147,3.147,3.137,3.137,3.128,3.128,3.128,3.128,3.119,3.119,3.11,3.11,3.1,3.1,3.1,3.1,3.091,3.091,3.091,3.091,3.082,3.082,3.073,3.073,3.065,3.065,3.056,3.047,3.047,3.047,3.038,3.038,3.038,3.038,0,0,0,0,0,0,0,0,1.895,1.888,1.885,1.878,1.871,1.861,1.855,1.845,1.836,1.826,1.82,1.81,1.807,1.804,1.801,1.801,1.798,1.798,1.795,1.795,1.795,1.795,1.795,1.798,1.798,1.801,1.804,1.807,1.807,1.81,1.813,1.817
2.637,2.617,2.598,2.579,2.554,2.529,2.505,2.476,2.459,2.442,2.425,2.408,2.397,2.392,2.381,2.381,2.381,2.381,2.387,2.392,2.403,2.414,2.425,2.436,2.447,2.459,2.47,2.476,2.488,2.494,2.499,2.511,2.517,2.523,2.529,2.541,2.548,2.554,2.56,2.572,2.579,2.591,2.604,2.611,2.623,2.65,2.69,2.76,2.865,2.995,0,3.283,3.41,3.512,3.596,3.658,3.697,3.736,3.762,3.789,3.817,3.845,3.859,3.873,3.873,3.887,3.887,3.887,3.887,3.887,3.887,3.887,3.887,3.887,3.887,3.887,3.887,3.887,3.887,3.901,3.901,3.916,3.916,3.93,3.93,3.93,3.945,3.945,3.96,3.96,3.96,3.96,3.96,3.96,3.96,3.96,3.96,3.96,3.96,3.96,3.96,3.96,3.96,3.975,3.975,3.96,3.96,3.96,3.96,3.945,3.945,3.93,3.93,3.93,3.916,3.916,3.916,3.901,3.901,3.887,3.887,3.887,3.873,3.859,3.859,3.859,3.845,3.831,3.831,3.831,3.817,3.817,3.803,3.803,3.789,3.789,3.789,3.789,3.789,3.789,3.789,3.789,3.789,3.789,3.789,3.789,3.789,3.789,3.803,3.817,3.817,3.817,3.831,3.831,3.831,3.831,0,0,0,0,0,0,0,0,0,0,0,0,0,0,0,0,0,0,1.304,1.304,1.302,1.3,1.299,1.297,1.296,1.292,1.291,1.289,1.288,1.285,1.285,1.283,1.282,1.28,1.278,1.277,1.275,1.274,1.274,1.274,1.274,1.274,1.274,1.275,1.275,1.277,1.277,1.275,1.274,1.272,1.271,1.268,1.265,1.262,1.257,1.251,1.242,1.235,1.227,1.219,1.211,1.204,1.197,1.192,1.187,1.183,1.18,1.177,1.176,1.172,1.171,1.167,1.164,1.161,1.158,1.154,1.15,1.148,1.144,1.142,1.139,1.137,1.134,1.132,1.13,1.128,1.126,1.125,1.122,1.121,1.12,1.119,1.119,1.118,1.118,1.116,1.116,1.116,1.115,1.114,1.113,1.113,1.112,1.112,1.112,1.112,1.112,1.112,1.112,1.113,1.113,1.113,1.113,1.112,1.112,1.112,1.112,1.112,1.112,1.112,1.112,1.112,1.112,1.112,1.112,1.112,1.112,1.112,1.113,1.113,1.113,1.112,1.111,1.109,1.108,1.107,1.107,1.106,1.106,1.106,1.107,1.107,1.107,1.107,1.107,1.107,1.107,1.107,1.107,1.107,1.107,1.108,1.108,1.108,1.108,1.107,1.107,1.107,1.107,1.108,1.108,1.108,1.108,1.109,1.109,1.111,1.112,1.113,1.113,1.114,1.115,1.116,1.118,1.118,1.119,1.12,1.12,1.121,1.122,1.124,1.124,1.125,1.126,1.127,1.13,1.131,1.132,1.133,1.134,1.136,1.136,1.136,1.136,1.136,1.136,1.137,1.137,1.137,1.139,1.141,1.144,1.148,1.15,1.157,1.162,1.17,1.176,1.183,1.191,1.2,1.211,1.221,1.229,1.238,1.248,1.259,1.269,1.277,1.282,1.286,1.291,1.294,1.297,1.299,1.3,1.3,1.302,1.305,1.307,1.308,1.313,1.313,1.317,1.318,1.32,0,0,1.789,1.792,1.798,1.804,1.813,1.82,1.832,1.842,1.852,1.861,1.875,1.885,1.891,1.898,1.898,1.902,1.908,0,0,0,0,0,0,0,0,0,0,0,0,0,0,0,0,0,3.314,3.273,3.243,3.214,3.175,3.165,3.156,3.165,3.165,3.184,3.194,3.214,3.233,3.253,3.263,3.273,3.273,3.273,3.263,3.263,3.263,3.253,3.233,3.214,3.204,3.175,3.175,3.165,3.156,3.156,3.147,3.147,3.137,3.128,3.119,3.119,3.119,3.119,3.11,3.11,3.11,3.1,3.1,3.1,3.1,3.091,3.091,3.091,3.091,3.091,3.082,3.082,3.082,3.073,3.073,3.065,3.065,3.056,3.056,3.056,3.056,3.056,3.047,0,0,0,0,0,0,0,0,1.888,1.885,1.881,1.878,1.865,1.858,1.848,1.839,1.832,1.823,1.813,1.807,1.801,1.798,1.798,1.795,1.792,1.792,1.792,1.792,1.792,1.792,1.792,1.795,1.795,1.798,1.801,1.804,1.804,1.807,1.81,1.813
